-4.5673952103 -12.6857404709 4.091571331
-4.7101130486 -12.8345575333 4.1484117508
-4.7381477356 -12.6699914932 4.1048440933
-4.7926273346 -12.579834938 4.0852236748
-4.7100973129 -12.1386728287 3.9522111416
-5.0173392296 -12.6990709305 4.1432185173
-5.1312408447 -12.757768631 4.1723599434
-5.2141389847 -12.7375640869 4.1761107445
-5.3444623947 -12.8308439255 4.2170820236
-5.0152463913 -11.8350772858 3.9020068645
-5.2006788254 -12.0661172867 3.9879889488
-5.2404165268 -11.9559288025 3.9623098373
-5.4371967316 -12.200797081 4.05377388
-5.6145343781 -12.1940383911 4.0739712715
-3.6068902016 -7.7076144218 2.5929441452
-3.6520605087 -7.6810135841 2.5915014744
-3.6895468235 -7.6386289597 2.5848650932
-3.7304449081 -7.603811264 2.5808258057
-3.7714819908 -7.5696368217 2.5770747662
-3.8437829018 -7.5976185799 2.5943865776
-6.6358742714 -12.9212369919 4.4057812691
-6.737159729 -12.9227294922 4.4202075005
-6.7702074051 -12.7939758301 4.3904891014
-6.9233160019 -12.8913822174 4.4380965233
-7.0091571808 -12.8612709045 4.4424247742
-1.299634099 -2.3479139805 0.8372359276
-1.3168264627 -2.3449058533 0.8389670849
-1.3184052706 -2.314312458 0.8311767578
-1.3249232769 -2.2929108143 0.8265602589
-1.3394510746 -2.2855644226 0.826848805
-1.3534498215 -2.277302742 0.826848805
-1.3698664904 -2.2730569839 0.8282914758
-1.3932652473 -2.2801370621 0.8337735534
-1.416298151 -2.2862010002 0.8389670849
-1.4699853659 -2.3407332897 0.8614724874
-7.3766493797 -11.5981626511 4.1706290245
-3.4598805904 -5.2235794067 1.91662848
-3.4940004349 -5.2054319382 1.9177826643
-3.5054190159 -5.1538057327 1.9068185091
-4.1686620712 -6.0492281914 2.242379427
-4.2051529884 -6.0227508545 2.2420909405
-3.898747921 -5.5113511086 2.0629134178
-3.9692914486 -5.5386977196 2.0819563866
-5.9329214096 -6.4394087791 2.6670963764
-5.9684033394 -6.3986821175 2.6653652191
-5.9188232422 -6.2679462433 2.6264135838
-13.6707077026 -13.6175146103 5.8432402611
-13.7819852829 -13.5609121323 5.8550701141
-13.9232902527 -13.5328197479 5.8795948029
-9.6952381134 -8.8608579636 3.986546278
-9.7742977142 -8.8236608505 3.9966449738
-9.8689851761 -8.7998466492 4.0130910873
-9.9588937759 -8.6629934311 4.0061664581
-10.0227537155 -8.6110839844 4.0104942322
-10.0819721222 -8.5549993515 4.0130910873
-10.1298713684 -8.4892864227 4.0113601685
-6.7866368294 -5.27409935 2.6186232567
-9.8703756332 -6.5667271614 3.6010696888
-9.9104824066 -6.5060400963 3.6010696888
-11.7495727539 -6.1581640244 4.0260748863
-11.7539587021 -6.068819046 4.0148224831
-15.0589189529 -6.6398415565 4.9880356789
-14.9860620499 -6.4981703758 4.9508152008
-15.0679273605 -6.4241232872 4.9646649361
-14.7644500732 -6.1879200935 4.8527150154
-14.872961998 -6.1263904572 4.8757972717
-14.9022855759 -6.0317826271 4.8732004166
-14.9256696701 -5.9349226952 4.8688726425
-14.8797559738 -5.8111767769 4.8423280716
-7.9123511314 -2.8676626682 2.5646679401
-7.9532527924 -2.8274018764 2.5721697807
-7.9912447929 -2.7858011723 2.5788059235
-8.0299310684 -2.7441499233 2.5857307911
-8.0629587173 -2.7003033161 2.590924263
-8.1474456787 -2.6178586483 2.607370615
-8.1615285873 -2.5672428608 2.6067934036
-8.2146444321 -2.5286717415 2.6186232567
-8.3051795959 -2.5008699894 2.6422827244
-8.3883333206 -2.4698867798 2.6636340618
-6.2061724663 -1.7856732607 1.9746232033
-6.2704701424 -1.7625985146 1.9913579226
-6.3356399536 -1.7390551567 2.0083811283
-6.36561203 -1.705354929 2.0144402981
-6.401892662 -1.6730482578 2.0225191116
-6.4417266846 -1.6413067579 2.0317521095
-6.4767651558 -1.6079845428 2.0395424366
-6.5134973526 -1.5747442245 2.0479099751
-6.5575203896 -1.5428694487 2.0585856438
-6.6265950203 -1.5162849426 2.0770514011
-6.7074055672 -1.4484057426 2.0963830948
-5.2191381454 -0.9933133721 1.6295406818
-5.2496170998 -0.9657813907 1.6370424032
-5.167775631 -0.917955339 1.6102091074
-5.2393684387 -0.8975636363 1.6304062605
-7.0056157112 -1.1564199924 2.1682271957
-7.288693428 -1.1573083401 2.2524781227
-7.271048069 -1.1088063717 2.2449762821
-5.59044981 -0.8171235323 1.7311034203
-5.5251913071 -0.7729713917 1.709752202
-5.485227108 -0.7330822945 1.6961911917
-5.4772753716 -0.697835505 1.6924402714
-5.6135716438 -0.6802580357 1.7325460911
-5.4055271149 -0.6213630438 1.6682037115
-5.2984509468 -0.543233335 1.6335800886
-5.2445025444 -0.5051887631 1.6162682772
-5.2703895569 -0.4750686884 1.6231930256
-5.2875165939 -0.4439266026 1.6275209188
-7.2823238373 -0.5669618845 2.2296841145
-7.2971258163 -0.5230914354 2.2331464291
-7.3336372375 -0.4805046916 2.2432451248
-5.3818826675 -0.319096595 1.6532001495
-5.4502906799 -0.1890965104 1.6719546318
-5.5227336884 -0.089897871 1.6930173635
-5.5222239494 -0.0559993647 1.6927288771
-4.0853128433 -0.0159927234 1.2596445084
-7.3282818794 0.0151591059 2.2368974686
-7.3539018631 0.0603314377 2.2446877956
-7.3620095253 0.1055749059 2.2472844124
-7.3315477371 0.1501433402 2.2383401394
-7.4166307449 0.1974024475 2.2643077374
-7.4133658409 0.2428439856 2.2637307644
-5.1042313576 -0.2240931988 1.5006045103
-7.3073630333 -0.2753121257 2.1353332996
-5.2314114571 -0.1332262307 1.5363131762
-5.2157974243 -0.1008130163 1.5316073895
-7.4041595459 -0.0970899537 2.161907196
-7.3661799431 -0.051396057 2.1508347988
-4.6603946686 -0.0044260123 1.3713334799
-4.6603341103 0.0241697151 1.3713334799
-4.6821975708 0.053021282 1.3777000904
-3.9515969753 0.068785131 1.1673233509
-3.9904870987 0.093971476 1.1786726713
-4.0263338089 0.1195510849 1.1891914606
-4.0236039162 0.1441844702 1.1886378527
-4.0207233429 0.1687888652 1.1880842447
-5.0888266563 0.2452820539 1.4964523315
-5.1409573555 0.2794368565 1.5119537115
-5.1391458511 0.310975939 1.5119537115
-5.0566039085 0.3371120691 1.488701582
-5.0812745094 0.3700942397 1.4964523315
-1.2469954491 4.4894704819 1.3710566759
-1.2018404007 4.4321117401 1.3516798019
-1.1783055067 4.4533381462 1.3558319807
-1.1485600471 4.4511790276 1.353063941
-1.1186515093 4.4478907585 1.3500189781
-1.0897400379 4.4481372833 1.3480813503
-1.0650980473 4.4659576416 1.351402998
-1.0411458015 4.4873867035 1.3558319807
-1.0152813196 4.5011901855 1.3580465317
-0.9952431321 4.5420675278 1.368288517
-0.9829261899 4.6214056015 1.3898798227
0.4416715205 4.2589521408 1.2622697353
0.4676903486 4.2552065849 1.2619929314
0.4927906692 4.2436666489 1.2595015764
0.5195220709 4.2462859154 1.2611625195
0.5515868068 4.2897171974 1.2747262716
10.0415487289 16.5495948792 5.6051659584
19.5046443939 8.3775730133 6.1438412666
14.7790393829 4.199587822 4.4547371864
14.7721204758 4.099834919 4.4450488091
14.8378095627 4.0201706886 4.4572286606
9.5511388779 2.276266098 2.857257843
9.518119812 2.2067735195 2.8434174061
9.5727291107 2.1576206684 2.8555970192
17.9766178131 3.5894072056 5.3095312119
17.989812851 3.4773964882 5.3070402145
14.4847230911 0.9900388718 4.2111430168
24.430398941 1.5183438063 7.0800180435
18.2801361084 0.6866549253 5.298459053
18.3800506592 0.5774876475 5.3261399269
12.2753858566 0.2354010791 3.5656187534
12.2823638916 0.160150826 3.5672795773
12.2994508743 0.0848955661 3.5719852448
12.3208808899 0.0094397897 3.5780751705
13.7843141556 -0.3279826343 4.0007662773
13.8463954926 -0.4144881964 4.0193128586
11.7891283035 -0.9332379699 3.4355173111
11.7774353027 -1.0050662756 3.4338562489
11.7490377426 -1.0752954483 3.4274897575
15.160243988 -1.4817533493 4.4168143272
15.1393976212 -1.5735539198 4.4134922028
15.1428289413 -1.66789186 4.4173679352
9.7793245316 -1.6271533966 2.8846621513
9.7653694153 -1.686473012 2.8835549355
9.751999855 -1.7458519936 2.8827245235
9.7618894577 -1.8095122576 2.8888144493
13.0756921768 -2.5906188488 3.8687272072
13.0642576218 -2.6717641354 3.8701114655
16.2432575226 -6.3667402267 5.054587841
16.1904983521 -6.4609436989 5.0504360199
16.1639041901 -6.5655903816 5.054587841
13.5285234451 -5.5918383598 4.2457447052
13.5426740646 -5.6952347755 4.260969162
5.4556765556 -2.5744533539 1.7666203976
5.367000103 -2.5729696751 1.7433681488
5.3105111122 -2.5860695839 1.7303580046
5.2997107506 -2.6211628914 1.7320189476
5.2775177956 -2.650611639 1.7300812006
5.2543067932 -2.6794500351 1.7278667688
5.2556853294 -2.7209210396 1.7336797714
5.2788653374 -2.7741370201 1.7466899157
5.3117618561 -2.8331682682 1.7630218267
7.2482881546 -4.2762284279 2.4531130791
7.2161417007 -4.3171682358 2.4511752129
7.1780152321 -4.3543848991 2.4472999573
7.1495251656 -4.397339344 2.4467463493
9.0458450317 -13.1639709473 4.6299591064
8.9638233185 -13.2176370621 4.6294054985
9.1376924515 -13.83664608 4.805457592
6.0983567238 -10.4451274872 3.5130243301
6.0202522278 -10.4581975937 3.504997015
5.9701938629 -10.5200128555 3.5133013725
6.9658975601 -13.2029399872 4.329064846
6.9055805206 -13.2855091095 4.3420748711
6.8256835938 -13.3310518265 4.3431820869
5.1261343956 -14.2930021286 4.4029736519
5.0396127701 -14.3278131485 4.4040808678
4.9553623199 -14.3693666458 4.4074025154
3.4098715782 -16.0484790802 4.7550778389
3.3010611534 -16.0192184448 4.7404069901
3.2089138031 -16.070268631 4.7495417595
0.0205189046 -29.2485179901 8.4543876648
-0.781956017 -12.8881530762 3.7483143806
-0.8610215187 -12.8831119537 3.7483143806
-0.9417361021 -12.9005870819 3.7549576759
-1.1057025194 -12.9550800323 3.7743346691
-2.0878858566 -17.9413280487 5.2320241928
-2.1991024017 -17.9377174377 5.2347922325
-1.8526023626 -14.3823947906 4.2061605453
-0.5024493933 -3.272916317 0.9826900363
-0.5172011256 -3.2365629673 0.9730016589
-0.5353142023 -3.2229020596 0.969956696
-0.5509879589 -3.1958847046 0.963036418
-0.5702482462 -3.1905519962 0.96248281
-0.5901648998 -3.1888825893 0.963036418
-0.6097204089 -3.1852011681 0.963036418
-0.6283186674 -3.1766872406 0.9616523385
-0.6485691667 -3.1765377522 0.962759614
-0.6700318456 -3.1819007397 0.9655277133
-0.6917888522 -3.1880583763 0.9685726762
-0.7136465907 -3.1940684319 0.9716175795
-0.7336629629 -3.1915023327 0.9721711874
-0.7567744851 -3.2019016743 0.9766001701
-6.1658053398 -19.5117607117 5.9234995842
-4.3708882332 -13.2643928528 4.0519766808
-4.4273743629 -13.1635522842 4.0295548439
-4.4918370247 -13.0888776779 4.0151605606
-4.5431647301 -12.9785394669 3.9899706841
-4.6777672768 -12.8549919128 3.9694867134
-7.2485027313 -18.4923477173 5.7504920959
-7.3468718529 -18.4100399017 5.7388663292
-7.4662060738 -18.3806381226 5.7438488007
-5.4500703812 -12.959851265 4.0788273811
-5.5272197723 -12.9208650589 4.0771665573
-5.4617509842 -12.1447868347 3.8648519516
-3.6759810448 -7.666425705 2.4780261517
-3.7136919498 -7.6247220039 2.4719362259
-3.7535872459 -7.5880117416 2.4675071239
-3.8190608025 -7.6026158333 2.4796869755
-6.8503818512 -13.2275428772 4.3199300766
-3.509352684 -6.677113533 2.2017681599
-3.5298976898 -6.6173057556 2.1893115044
-3.5690615177 -6.5929875374 2.1884810925
-1.2880885601 -2.34678936 0.7999944091
-1.2968485355 -2.3287701607 0.7966727018
-1.3092207909 -2.3174233437 0.7955654263
-1.3186334372 -2.3010118008 0.792797327
-1.332727313 -2.2928774357 0.792797327
-1.3443291187 -2.2805192471 0.7914132476
-1.3642184734 -2.2821218967 0.7947350144
-1.381685257 -2.2794587612 0.7966727018
-1.4042062759 -2.2848510742 0.8013784885
-1.4370163679 -2.3063585758 0.8116205335
-3.4098517895 -5.2513561249 1.8325015306
-3.4425377846 -5.2311377525 1.8327783346
-4.1243634224 -6.1023535728 2.1505579948
-4.136203289 -6.0396738052 2.1375477314
-10.0133771896 -11.4825391769 4.4176445007
-10.07791996 -11.414399147 4.4151535034
-6.0317063332 -6.3456044197 2.5508275032
-9.6924114227 -8.9071836472 3.8208389282
-9.8194637299 -8.9134140015 3.8490736485
-9.8961515427 -8.8728790283 3.85765481
-10.1759853363 -8.6828479767 3.8822910786
-10.1923284531 -8.5892877579 3.8684504032
-6.8338522911 -5.2749114037 2.5156724453
-6.8515667915 -5.2218155861 2.5104129314
-9.8893938065 -6.6189036369 3.4568316936
-9.9354333878 -6.5618047714 3.4587693214
-16.1250705719 -10.5071783066 5.573056221
-16.2700710297 -10.4599981308 5.6007370949
-16.3209629059 -10.3517360687 5.5963082314
-16.3581047058 -10.2350893021 5.5874500275
-16.3355503082 -10.0820446014 5.5586619377
-16.3723583221 -9.8293895721 5.5298733711
-16.1088581085 -9.1410684586 5.3643403053
-11.7461605072 -6.1974692345 3.8546099663
-11.763502121 -6.1146450043 3.8479664326
-11.7862586975 -6.0349068642 3.8432605267
-11.7990407944 -5.9503612518 3.8355100155
-14.7994251251 -7.2366876602 4.7744545937
-14.6187820435 -6.9274029732 4.6889200211
-14.5416984558 -6.7819404602 4.650996685
-14.4965734482 -6.6529145241 4.6235923767
-14.5187301636 -6.5555372238 4.6177792549
-14.6914634705 -5.7835097313 4.5770878792
-14.705163002 -5.6849417686 4.5704445839
-7.9913802147 -2.9221885204 2.4799637794
-8.0733823776 -2.8961257935 2.4996173382
-8.0864686966 -2.8449401855 2.4982333183
-8.0992298126 -2.7937030792 2.4968492985
-8.2163581848 -2.7777919769 2.5272984505
-8.3010149002 -2.693354845 2.5427999496
-8.3008995056 -2.6371357441 2.5378172398
-5.8769412041 -1.8278610706 1.8017754555
-5.9496436119 -1.8104958534 1.8203217983
-6.0214309692 -1.7920327187 1.8385913372
-6.1707220078 -1.7952882051 1.8801131248
-6.2694354057 -1.7823359966 1.9064102173
-6.2589564323 -1.7379252911 1.9000434875
-6.3075304031 -1.7097879648 1.911392808
-6.3355541229 -1.6757183075 1.9166522026
-6.4108533859 -1.6535992622 1.9360290766
-6.438586235 -1.6186796427 1.9412884712
-9.1313257217 -1.9407681227 2.7180216312
-9.1393766403 -1.8255572319 2.7135927677
-9.1636152267 -1.7719968557 2.7174680233
-6.9177265167 -1.2940645218 2.0561652184
-6.885819912 -1.2444241047 2.0445392132
-4.9327735901 -0.8606399894 1.471262455
-5.4828677177 -0.9218332171 1.6304290295
-5.4277091026 -0.8783642054 1.6127130985
-5.4045100212 -0.8406204581 1.604408741
-5.4304757118 -0.8105587959 1.6104986668
-5.3563909531 -0.7659526467 1.5875233412
-7.1261782646 -0.9739901423 2.1007318497
-5.3415651321 -0.6970613003 1.5806030035
-5.3571848869 -0.6656919718 1.5839247704
-5.5358104706 -0.6533771753 1.6345812082
-7.3541841507 -0.73056674 2.1577551365
-7.3594851494 -0.6855174899 2.1580319405
-5.3187026978 -0.4629073441 1.5667624474
-5.358798027 -0.4332743287 1.5775580406
-5.348897934 -0.3994580805 1.5739594698
-5.3512482643 -0.3666303456 1.5739594698
-7.3597865105 -0.4583722353 2.1530492306
-7.3768520355 -0.4140097797 2.1572015285
-4.9295210838 -0.7505896091 1.4108784199
-4.8386650085 -0.7064864635 1.3841713667
-4.7904105186 -0.6694924831 1.3694825172
-5.0198817253 -0.6699894071 1.4325110912
-5.0449318886 -0.641833961 1.4383865595
-5.093744278 -0.6162705421 1.45093894
-5.1089196205 -0.5863135457 1.4541437626
-5.1315836906 -0.5570192337 1.4594851732
-5.1329874992 -0.5253272653 1.4589509964
-5.0727982521 -0.4877856672 1.4413243532
-5.1187381744 -0.4288444519 1.4525413513
-5.0559353828 -0.3924109638 1.4343805313
-5.0726675987 -0.3623992801 1.4383865595
-7.2203063965 -0.4695645869 2.0342202187
-4.9632115364 -0.2935042679 1.4068722725
-4.9976396561 -0.2647512853 1.4159526825
-5.1108384132 -0.2392175049 1.4469329119
-5.118950367 -0.2081220597 1.448802352
-5.1384305954 -0.1773256063 1.4538767338
-5.1509814262 -0.1461120546 1.4570815563
-4.7268972397 -0.1054017171 1.3393036127
-4.7178192139 -0.0762487724 1.3366328478
-4.6931438446 -0.0470701717 1.3296890259
-4.7482733727 -0.0184380729 1.3449120522
-4.6808400154 0.0104863122 1.3262171745
-5.2819962502 0.0447761826 1.4928689003
-5.2931847572 0.0773631036 1.4960737228
-5.2983913422 0.1099645197 1.4976762533
-5.2899103165 0.1422594786 1.4955396652
-4.0445785522 0.1326336712 1.1504849195
-4.030207634 0.1569095254 1.1467459202
-4.0176172256 0.1811028123 1.1435410976
-5.3579654694 0.2758598328 1.5158369541
-5.3744506836 0.3097982407 1.5209113359
-5.3676404953 0.3424589038 1.5195759535
-7.7803153992 18.9397335052 5.7034974098
-7.6589097977 18.9746055603 5.6997585297
-1.2569141388 4.4739155769 1.3168697357
-1.2228319645 4.4573750496 1.3099257946
-1.1865161657 4.4312744141 1.300311327
-1.1563916206 4.4272794724 1.2971065044
-1.1280198097 4.4296212196 1.295771122
-1.1029000282 4.444879055 1.2981747389
-1.0794392824 4.4674906731 1.3027149439
-1.0546437502 4.4852890968 1.3059197664
-1.0279585123 4.4954342842 1.3069881201
-1.012639761 4.5571713448 1.322745204
-1.0075324774 4.6697649956 1.3529241085
0.4294773042 4.266108036 1.2172524929
0.4544055462 4.2518949509 1.2140476704
0.4800492823 4.2451968193 1.2129793167
0.5047072768 4.2306904793 1.2097744942
0.5357368588 4.2676682472 1.2209914923
19.4434833527 8.4086399078 5.8997941017
19.4636688232 8.2759866714 5.8904466629
20.1791534424 6.7381095886 5.9248986244
23.2376594543 7.4430627823 6.7912745476
14.7846431732 4.3400816917 4.2992424965
14.7572650909 4.2338833809 4.2837524414
14.7560548782 4.135720253 4.2760071754
14.835067749 4.0598397255 4.2914972305
14.896944046 3.9786736965 4.3021802902
9.52501297 2.2966191769 2.7443597317
9.524851799 2.2348356247 2.7403538227
9.5769090652 2.1851229668 2.7513036728
17.891040802 3.5048801899 5.0814909935
14.3434934616 1.1056228876 4.0158810616
14.3961496353 1.0208506584 4.0287003517
18.2887096405 0.732901454 5.101521492
18.3265724182 0.6218063831 5.1108689308
18.446603775 0.5125575066 5.143184185
12.2268772125 0.1910151839 3.4179108143
12.190237999 0.1156451255 3.4074950218
12.260102272 0.0410539508 3.4267241955
12.0958652496 -0.1078822687 3.3813221455
13.8027973175 -0.2931181788 3.8551046848
13.8219308853 -0.3783915639 3.8609802723
13.7500038147 -0.4608491361 3.8417513371
11.7872076035 -0.9023689032 3.3052072525
11.7766475677 -0.9742779136 3.30387187
11.7656488419 -1.0460913181 3.3025364876
15.2125482559 -1.4479129314 4.2639889717
15.1401014328 -1.5347962379 4.2463626862
15.1256084442 -1.627148509 4.2450270653
9.788184166 -1.6021324396 2.777743578
9.7781686783 -1.6621614695 2.777743578
9.7611436844 -1.7209538221 2.7758741379
9.7456607819 -1.7799470425 2.7745387554
12.9508333206 -2.5313501358 3.6860492229
13.0049552917 -2.6248981953 3.7058124542
16.2513446808 -6.322807312 4.8616924286
16.2041797638 -6.4192085266 4.8592886925
16.1680622101 -6.5199570656 4.8603568077
13.5212173462 -5.5485601425 4.0794434547
13.4869174957 -5.6314201355 4.0794434547
16.9063110352 -7.9293165207 5.2040762901
5.3742938042 -2.5578460693 1.6784827709
5.3272747993 -2.5756511688 1.6688681841
5.293211937 -2.5993571281 1.6632597446
5.2581973076 -2.6223115921 1.6573841572
5.2634935379 -2.6654250622 1.6640609503
5.2598905563 -2.7042896748 1.6680669785
5.2765045166 -2.7539255619 1.6784827709
5.3156900406 -2.8160629272 1.6961092949
7.2542495728 -4.2535266876 2.3595116138
6.7227911949 -8.3416128159 2.9980764389
6.6714811325 -8.3827056885 2.9980764389
11.6972579956 -15.0788593292 5.3178482056
9.0123405457 -13.2170972824 4.4624223709
9.2560577393 -13.9393386841 4.6661968231
6.112326622 -10.407160759 3.3738441467
6.0440106392 -10.4369621277 3.371440649
6.9966073036 -13.1798715591 4.1643719673
6.9182834625 -13.227678299 4.165974617
6.8387541771 -13.2733058929 4.1670427322
5.1674771309 -14.294002533 4.2412881851
5.0780644417 -14.3208990097 4.2399530411
4.9948410988 -14.365442276 4.24395895
6.2517004013 -19.5159854889 5.708304882
3.3416998386 -16.0117683411 4.5620393753
3.2449173927 -16.0395278931 4.5641760826
-0.7498788834 -12.9081630707 3.6123378277
-0.8281983733 -12.8898553848 3.6085989475
-0.9067974687 -12.8778028488 3.6067295074
-2.0449402332 -17.9647674561 5.0398283005
-2.1537504196 -17.9403991699 5.0366234779
-1.8087655306 -14.3301620483 4.0319051743
-0.4875560999 -3.2451725006 0.9384312034
-0.5068579912 -3.2383122444 0.9373629689
-0.5211002231 -3.200906992 0.9277484417
-0.5402451158 -3.1947991848 0.9269471765
-0.5584961176 -3.183832407 0.924810648
-0.5750710964 -3.1642310619 0.920270443
-0.5935788751 -3.1559085846 0.9189351201
-0.6158944964 -3.1673386097 0.9232082367
-0.6362721324 -3.1682229042 0.9245435596
-0.6572739482 -3.171806097 0.9266801476
-0.677533567 -3.1714820862 0.9277484417
-0.7011469007 -3.1860830784 0.9330897927
-0.7260351181 -3.2052106857 0.9397665858
-0.7498652935 -3.2185225487 0.9448409081
-4.1907310486 -13.3818874359 3.9151954651
-4.3684101105 -13.3715867996 3.9274806976
-7.2881379128 -18.7307662964 5.5990729332
-7.3812675476 -18.6310462952 5.5827817917
-3.6498711109 -7.6646399498 2.3816785812
-3.670787096 -7.5883278847 2.3651201725
-3.7266376019 -7.5846848488 2.37099576
-3.7860267162 -7.5875382423 2.3790078163
-3.5368967056 -6.8765406609 2.1720283031
-3.5205347538 -6.742834568 2.137042284
-1.3093934059 -2.4046978951 0.7878036499
-1.282066226 -2.3207669258 0.763767302
-1.2986443043 -2.317056179 0.7651026845
-1.3085385561 -2.3015112877 0.7626990676
-1.3187738657 -2.2867665291 0.7605624795
-1.3357074261 -2.2836182117 0.7621648908
-1.3482154608 -2.2728953362 0.7613636851
-1.3676145077 -2.2736551762 0.7643014789
-1.3956253529 -2.2882354259 0.771779418
-1.4279309511 -2.309107542 0.7813939452
-10.0149459839 -11.5433263779 4.2642564774
-10.076043129 -11.4708013535 4.2602500916
-6.0577216148 -6.2517147064 2.4415023327
-6.108795166 -6.2274923325 2.4465765953
-9.6557149887 -8.9192838669 3.6718945503
-10.656036377 -8.4793043137 3.8030259609
-10.6692094803 -8.3834066391 3.7894055843
-6.9431405067 -5.3209729195 2.4532532692
-6.9748897552 -5.2776894569 2.4529862404
-10.7056903839 -7.9951224327 3.7319853306
-10.7149791718 -7.9001293182 3.7183647156
-9.8384389877 -6.6217579842 3.315623045
-9.8828983307 -6.5639305115 3.316958189
-16.2380142212 -10.3561439514 5.3664550781
-16.4916267395 -10.2353477478 5.4081177711
-16.5787792206 -10.1490535736 5.4161300659
-16.5953617096 -10.0197515488 5.4014410973
-16.5629520416 -9.8620443344 5.3712620735
-16.1967544556 -9.2446403503 5.1973996162
-16.3279304504 -9.1871261597 5.2211685181
-16.3342666626 -9.0592012405 5.2054114342
-11.7382011414 -6.1397900581 3.700204134
-13.9441509247 -7.0762386322 4.3625378609
-8.091422081 -3.0966248512 2.4300181866
-8.0678625107 -3.0310099125 2.4174659252
-8.1270036697 -2.9964318275 2.429484129
-8.1486291885 -2.891326189 2.4252109528
-8.5706996918 -2.8060567379 2.5283000469
-8.6162071228 -2.7625229359 2.5365791321
-8.6679401398 -2.7205531597 2.5467278957
-5.9186220169 -1.8192038536 1.7449831963
-6.052438736 -1.819675684 1.7805035114
-6.1346945763 -1.8033858538 1.8010679483
-6.2586627007 -1.7981022596 1.8336504698
-6.226890564 -1.7477142811 1.8213652372
-6.2077507973 -1.7013419867 1.8128190041
-6.2879061699 -1.681850791 1.8328492641
-6.4267010689 -1.6346567869 1.866767168
-6.4412875175 -1.5963487625 1.8681025505
-5.3350563049 -1.0141539574 1.5339977741
-6.9451975822 -1.2308633327 1.983743906
-5.0260195732 -0.8601275682 1.4421255589
-5.0169382095 -0.8269330263 1.4381195307
-7.3407793045 -1.1618111134 2.0887024403
-4.128657341 2.7107360363 1.3259577751
-4.0845527649 2.7178237438 1.3173242807
-4.0597758293 2.7374341488 1.3147850037
-4.0341129303 2.7562983036 1.3119918108
-4.0123500824 2.7777001858 1.3104683161
-3.9976079464 2.8039312363 1.3112300634
-3.9929506779 2.8373608589 1.3152928352
-7.6807456017 19.0637893677 5.4250974655
-7.5604224205 19.1024646759 5.422811985
-1.219058156 4.4791531563 1.2480022907
-1.1825836897 4.4529032707 1.2388609648
-1.1532920599 4.4525866508 1.2368295193
-1.1223855019 4.4455156326 1.2330206633
-1.0953190327 4.4532580376 1.233274579
-1.0677475929 4.4589543343 1.2330206633
-1.0434523821 4.4786071777 1.2365756035
-1.0228178501 4.5151057243 1.2447012663
-0.9955118895 4.5231852531 1.2452090979
-0.9724072218 4.5509595871 1.2510493994
0.4487704337 4.3637185097 1.180965662
0.4655590057 4.2685670853 1.1565886736
0.4928400517 4.2752399445 1.1591279507
0.5189474225 4.2711749077 1.1588740349
0.5444153547 4.2621531487 1.157350421
0.5775701404 4.3114652634 1.1713163853
10.0034818649 16.5553150177 5.1074352264
10.0887117386 16.4672279358 5.0993094444
8.9259433746 13.6122589111 4.3027410507
7.4044556618 11.1409225464 3.5412149429
7.4796967506 11.1057109833 3.5445158482
19.4795589447 8.4097766876 5.599545002
19.5201091766 8.2855567932 5.5964980125
14.8130950928 4.2374978065 4.0742073059
14.7922439575 4.1334986687 4.0615110397
14.7949342728 4.0365409851 4.055416584
9.5428991318 2.2900252342 2.6057486534
9.5341672897 2.2261402607 2.5996544361
9.5419883728 2.1663105488 2.5981309414
9.6127109528 2.1204547882 2.6136205196
17.7799873352 3.4703700542 4.7852020264
14.3805847168 1.0080471039 3.8139321804
14.3652639389 0.9184266925 3.8083457947
18.24933815 0.7187449336 4.8240528107
18.267906189 0.6072408557 4.8278617859
12.1921901703 0.0296956263 3.2301545143
12.2018146515 -0.0451472998 3.2326939106
13.8358373642 -0.3903214335 3.6630997658
13.834148407 -0.4752421081 3.6633536816
11.767118454 -0.9845880866 3.1293456554
11.7521848679 -1.0559952259 3.1270604134
11.7377815247 -1.1273483038 3.1250288486
15.1629610062 -1.5490500927 4.0307855606
15.1483631134 -1.6415393353 4.0295162201
15.1735610962 -1.7385210991 4.0389113426
31.9456062317 -4.4522852898 8.4971036911
9.7905349731 -1.6750459671 2.6369817257
9.7743587494 -1.7340766191 2.635458231
9.7635345459 -1.7940183878 2.635458231
9.7371377945 -1.8510087729 2.63139534
13.0618906021 -2.5647265911 3.5239479542
13.0515956879 -2.6459758282 3.5254714489
13.0474224091 -2.7285790443 3.5287723541
32.7156105042 -10.9342041016 9.0851974487
16.1949863434 -6.3141407967 4.5927257538
16.1892051697 -6.4265885353 4.6021208763
16.1476726532 -6.5250782967 4.6016130447
13.4995088577 -5.5523118973 3.8614165783
13.4509086609 -5.6290688515 3.8573536873
5.4030776024 -2.5823149681 1.6014683247
5.3096661568 -2.5778765678 1.578868866
5.295484066 -2.6112618446 1.5793766975
5.2733058929 -2.6406776905 1.577599287
5.2561411858 -2.6725466251 1.577345252
5.2430830002 -2.7065196037 1.5783610344
5.2375192642 -2.7444679737 1.5816620588
5.2795257568 -2.807849884 1.5991829634
7.3233623505 -4.3060250282 2.2596464157
7.2153658867 -4.3023743629 2.2347617149
7.1739282608 -4.3375654221 2.2301909924
7.1513028145 -4.3840279579 2.2314605713
7.1398816109 -4.437517643 2.2362852097
10.21068573 -7.5340709686 3.3606729507
10.1665906906 -7.5983171463 3.3614346981
10.1205482483 -7.6611385345 3.3616886139
5.2279653549 -5.8134679794 2.0818977356
5.1915531158 -5.8447141647 2.0816438198
5.1441044807 -5.8633775711 2.0770730972
5.09979105 -5.8853325844 2.073772192
5.0762209892 -14.3512229919 4.0257072449
4.9823584557 -14.365653038 4.0211362839
3.3417196274 -16.0713768005 4.3387989998
3.2357742786 -16.0555515289 4.3291497231
3.1409084797 -16.0940895081 4.3342280388
5.5729951859 -35.4205741882 9.4427270889
-0.8393263817 -12.886469841 3.4195840359
-0.9174903035 -12.8685350418 3.4162828922
-0.9965072274 -12.8636274338 3.416536808
-2.0667192936 -18.0449295044 4.7976446152
-2.1704580784 -17.9742908478 4.7824087143
-2.2809486389 -17.9625549316 4.7829165459
-1.9275013208 -14.4620895386 3.8596389294
-0.516803205 -3.2431814671 0.8914891481
-0.531673789 -3.2094080448 0.8833634853
-0.5495665073 -3.1955974102 0.8805702925
-0.5656242371 -3.1721642017 0.8752378225
-0.5845544338 -3.165779829 0.8744760156
-0.6039682627 -3.1621334553 0.8744760156
-0.6228012443 -3.1555206776 0.8737142682
-0.6431108117 -3.1563796997 0.8749839067
-0.6646405458 -3.1627891064 0.8777770996
-0.6850520372 -3.1633794308 0.8790467381
-0.7050771713 -3.1619493961 0.8798084855
-0.7319933772 -3.1905686855 0.8886959553
-0.7528817654 -3.1916670799 0.8902195096
-0.7763043046 -3.2029724121 0.8945362568
-3.5200264454 -14.202829361 3.8708117008
-5.2290067673 -20.0485801697 5.4687728882
-5.3599128723 -20.0460205078 5.4768986702
-5.4930272102 -20.050069809 5.4870557785
-7.7365717888 -19.491476059 5.5347938538
-7.8556613922 -19.442741394 5.5345401764
-7.8461313248 -19.0810565948 5.4456653595
-8.0328407288 -19.1994228363 5.4931497574
-3.6859779358 -7.7164359093 2.2743742466
-3.6847457886 -7.5935783386 2.245172739
-3.7432301044 -7.5951242447 2.2522826195
-3.797547102 -7.5875859261 2.2568533421
-1.3227998018 -2.3758108616 0.7431958914
-1.3197996616 -2.3364627361 0.73380059
-1.3144487143 -2.2938821316 0.7233896255
-1.3270448446 -2.2832624912 0.7226278186
-1.3459281921 -2.2834172249 0.7251670957
-1.3609035015 -2.2767777443 0.7256749272
-1.374347806 -2.2675566673 0.7254210114
-1.3917711973 -2.264854908 0.7271985412
-1.4127840996 -2.2677769661 0.7307534814
-1.4374914169 -2.2762560844 0.7360859513
-7.0930519104 -11.1106119156 3.4899215698
-7.1899776459 -11.1115522385 3.5038876534
-6.7930607796 -10.3577566147 3.2811939716
-6.8243794441 -10.2675380707 3.2659583092
-6.5934591293 -9.7889614105 3.1278221607
-6.7204303741 -9.8466072083 3.1590549946
-6.7769627571 -9.6722774506 3.129853487
-4.9219369888 -6.8424062729 2.2421255112
-5.0594592094 -6.9434504509 2.2847852707
-5.2444138527 -7.0149054527 2.3287146091
-5.2920260429 -6.9887652397 2.3307459354
-6.1394190788 -6.2439112663 2.3282067776
-6.1987581253 -6.2273836136 2.3360784054
-6.2327346802 -6.1851415634 2.3345549107
-9.6772632599 -8.8144016266 3.4657986164
-10.5024232864 -8.6626377106 3.6034269333
-9.5822277069 -7.8048458099 3.273829937
-9.625415802 -7.7422642708 3.2723064423
-10.7721567154 -8.556927681 3.6410081387
-10.837392807 -8.5008211136 3.6453249454
-10.8557109833 -8.4080944061 3.634152174
-7.05265522 -5.3917508125 2.3599476814
-11.186917305 -7.1227011681 3.5109975338
-11.1911029816 -7.0292191505 3.4988090992
-11.2385635376 -6.868144989 3.4871284962
-11.2573032379 -6.7850694656 3.4800186157
-11.740486145 -6.1281208992 3.5061728954
-11.7830266953 -6.0586223602 3.5076966286
-8.1635150909 -3.1706237793 2.3284606934
-8.1611299515 -3.1121921539 2.3223664761
-14.2109766006 -5.322883606 4.0132646561
-16.1173286438 -5.7014579773 4.517563343
-15.9121599197 -5.3013315201 4.4324979782
-5.9210429192 -1.7700924873 1.6517457962
-6.3038010597 -1.5933481455 1.7363034487
-6.4355316162 -1.5847809315 1.7693139315
-6.4883942604 -1.5556638241 1.7809945345
-5.4044723511 -1.0863866806 1.4765363932
-5.424325943 -1.0558021069 1.4800913334
-5.423099041 -1.0210617781 1.4780598879
-5.3103280067 -0.9660364389 1.4463191032
-5.3161559105 -0.9334347248 1.4463191032
-5.2903165817 -0.8954466581 1.4379395247
-7.053920269 -1.1508769989 1.9056725502
-5.1986732483 -0.8143616319 1.4107693434
-5.1595797539 -0.7757973075 1.3990887403
-4.8588876724 -0.6998769641 1.3180860281
-4.8630905151 -0.6700502038 1.3180860281
-5.3033900261 -0.6979598999 1.4336227179
-5.2855014801 -0.6626213193 1.4277824163
-5.1819095612 -0.6172783375 1.3993426561
-5.2932348251 -0.5977101922 1.4277824163
-5.224676609 -0.5574668646 1.4087378979
-7.3075270653 -0.7360447645 1.9574736357
-7.3205718994 -0.69201684 1.959758997
-5.2165412903 -0.4274042845 1.4034054279
-5.2074928284 -0.3945021629 1.4003583193
-5.1818351746 -0.3605727255 1.392994523
-5.2129073143 -0.330630511 1.4006122351
-5.1974568367 -0.297629267 1.3960416317
-5.1779351234 -0.2646295726 1.390455246
-5.2171435356 -0.2345777005 1.4003583193
-4.8944811821 -0.0995469764 1.3145310879
-4.8263344765 -0.0684797764 1.2965023518
-4.7947468758 -0.0385802016 1.2881227732
-4.793926239 -0.0091567775 1.2878688574
-5.3964686394 0.0222828928 1.4460651875
-5.402033329 0.0554496907 1.4475886822
-5.2101049423 0.0856014118 1.3973112106
-5.1630659103 0.1165578812 1.385122776
-4.1412630081 0.1197391152 1.1169761419
-4.1752500534 0.1463322043 1.1261174679
-5.4944348335 0.2250147164 1.4729814529
-5.5219364166 0.2600670159 1.480599165
-5.3270578384 0.2838031054 1.4298138618
-5.1552767754 0.306517005 1.385122776
-5.2420973778 0.3438984156 1.4084839821
-5.2627558708 0.2670756876 1.3367167711
-4.0875134468 0.2328992933 1.0451852083
-5.2242097855 0.3294478953 1.3280502558
-5.2375826836 0.3625651896 1.3319020271
-5.3814067841 0.4056748152 1.368253231
-5.4629797935 0.4455291927 1.3891973495
-5.5839061737 0.4898675382 1.4200115204
-4.8205604553 0.7231384516 1.2387371063
-4.1120905876 2.7209231853 1.252699852
-4.0654854774 2.726111412 1.2437926531
-4.0462727547 2.7493696213 1.243070364
-4.0317258835 2.7757956982 1.2437926531
-4.0170063972 2.8021469116 1.244514823
-4.027484417 2.8463401794 1.2529405355
-7.7304940224 19.069360733 5.1333684921
-7.6147780418 19.1200428009 5.1343317032
-1.2279890776 4.4661035538 1.1785531044
-1.1965328455 4.4585566521 1.174701333
-1.1649694443 4.4498538971 1.1706087589
-1.1340386868 4.4428129196 1.1669976711
-1.1055839062 4.4449782372 1.1657940149
-1.081720829 4.4658269882 1.1694051027
-1.0589814186 4.4922175407 1.1744605303
-1.034655571 4.5128202438 1.1780716181
-1.0086369514 4.5266623497 1.1799974442
-0.9890652299 4.5707087517 1.1896269321
0.4336556196 4.3287115097 1.1087394953
0.4574440718 4.2999091148 1.102239728
0.4813286364 4.2748370171 1.0967026949
0.5068642497 4.266020298 1.0952583551
0.533510983 4.2666826248 1.0962212086
0.560184896 4.2671780586 1.0971841812
9.9209547043 16.4987468719 4.8047637939
10.0290746689 16.4491634369 4.808134079
8.8120622635 13.6853265762 4.066906929
8.9149618149 13.6602621078 4.0755734444
7.4053659439 11.1959733963 3.3591423035
7.4755444527 11.1527433395 3.3598644733
19.519329071 8.4764852524 5.3079023361
19.567401886 8.3550329208 5.3069396019
20.1752071381 6.6332654953 5.2973098755
14.7541160583 4.1576433182 3.8317074776
14.7812204361 4.067551136 3.8321890831
14.8405818939 3.9860970974 3.8410961628
9.5602817535 2.3173465729 2.4696216583
9.5440921783 2.2515068054 2.4619181156
9.5444841385 2.1898622513 2.4585478306
14.3865785599 1.0402554274 3.6073412895
14.386879921 0.9515765309 3.6058969498
18.270357132 0.759067893 4.5652308464
18.2843704224 0.6472929716 4.5676383972
12.1085128784 0.2051371187 3.0334260464
22.3515758514 0.2426762134 5.5739159584
12.2062063217 0.0569912046 3.0572590828
12.2111787796 -0.017912304 3.0584626198
13.8070287704 -0.3590267599 3.4554367065
13.8637418747 -0.4456345141 3.4701216221
11.7704200745 -0.9583117366 2.9587979317
11.7749547958 -1.0314459801 2.9614458084
11.764538765 -1.1033142805 2.9604830742
15.1629133224 -1.5155302286 3.8093190193
15.1407814026 -1.607208848 3.806189537
15.1354579926 -1.7006220818 3.8073933125
9.8311233521 -1.6588753462 2.5026025772
9.7700881958 -1.7103037834 2.4898436069
9.7641849518 -1.7710851431 2.4910471439
9.7817525864 -1.8363320827 2.4982693195
13.0722446442 -2.6200404167 3.3365130424
13.0711307526 -2.7033445835 3.340364933
21.223367691 -5.07199049 5.4419922829
21.1767654419 -5.1984176636 5.4381408691
16.1609039307 -6.3748826981 4.3386983871
16.1485042572 -6.4847726822 4.3459200859
13.4463090897 -5.5924749374 3.6417665482
13.4323015213 -5.6835718155 3.6473035812
5.4175782204 -2.5728406906 1.5172690153
5.3562273979 -2.5841138363 1.5047507286
5.3263239861 -2.6101000309 1.5008989573
5.3049941063 -2.6401393414 1.4994544983
5.278298378 -2.6673896313 1.4965656996
5.2557864189 -2.6966264248 1.4948805571
5.2468900681 -2.7328579426 1.4970471859
5.3278532028 -2.8166923523 1.5244910717
7.2186655998 -4.2815237045 2.1114060879
7.19059515 -4.3247361183 2.1109247208
7.1688961983 -4.3718061447 2.1123690605
7.1468901634 -4.4187731743 2.1138134003
6.7750825882 -13.3040466309 3.7327649593
5.1035113335 -14.3285694122 3.8023376465
5.0158166885 -14.3605308533 3.8025784492
4.919116497 -14.3662452698 3.7960786819
3.277782917 -16.0832386017 4.1008505821
3.1754629612 -16.0849571228 4.0962767601
5.4511003494 -35.5842933655 8.9586677551
5.0056319237 -35.5889205933 8.9437427521
-0.8106554747 -12.8874578476 3.2325148582
-0.8902503252 -12.8899879456 3.2344408035
-0.9696158767 -12.8881540298 3.2354037762
-1.0449028015 -12.8355264664 3.2238485813
-2.136749506 -18.0220661163 4.5310463905
-2.2453687191 -17.9932060242 4.5271945
-2.3537144661 -17.9636917114 4.5233430862
-2.0026886463 -14.5872173309 3.6817288399
-0.5085547566 -3.250957489 0.8458555341
-0.523517251 -3.2171180248 0.8381519914
-0.537438333 -3.179390192 0.829485476
-0.5564349294 -3.1731646061 0.8287632465
-0.5750291944 -3.1649155617 0.8275595903
-0.5949747562 -3.1641893387 0.8282817602
-0.6088347435 -3.1318941116 0.8210597038
-0.6312810779 -3.1442780495 0.8251522183
-0.6546881199 -3.1603057384 0.8302077055
-0.6764947176 -3.1676204205 0.8330965042
-0.6977912784 -3.1719419956 0.835263133
-0.719594121 -3.1780147552 0.8379112482
-0.7414976954 -3.1839387417 0.8405593634
-0.7686883807 -3.2114257812 0.8487443924
-6.2174186707 -19.5293674469 5.1131467819
-7.5529518127 -19.4978294373 5.2159409523
-7.6443157196 -19.3797874451 5.1969227791
-7.7612757683 -19.3280143738 5.1957192421
-4.4660987854 -10.9260063171 2.9573533535
-1.1917837858 -2.5480222702 0.7274132967
-1.2015693188 -2.5283858776 0.7240430117
-1.2179037333 -2.522714138 0.7245244384
-1.2239681482 -2.4960169792 0.7192282677
-3.7868630886 -7.610537529 2.1381278038
-1.2961757183 -2.344587326 0.6941916943
-1.3100630045 -2.3357431889 0.6939509511
-1.3190952539 -2.3183784485 0.6913028359
-1.3236014843 -2.2934231758 0.6864881516
-1.3366689682 -2.2835826874 0.6860066652
-1.353625536 -2.2803473473 0.6874510646
-1.3705927134 -2.2769896984 0.6888954639
-1.3749393225 -2.2527909279 0.6843215227
-1.4030241966 -2.2674295902 0.6910620928
-1.4323705435 -2.2834525108 0.6982842088
-7.1616039276 -11.2730340958 3.3422906399
-7.1455259323 -11.0966720581 3.3032913208
-7.2410593033 -11.0948867798 3.3158097267
-6.7923731804 -10.2689971924 3.0834991932
-6.8179721832 -10.1714925766 3.0668883324
-7.4516868591 -10.9709644318 3.3191800117
-7.493555069 -10.8882541656 3.308106184
-7.550786972 -10.8285341263 3.3040137291
-5.2097067833 -7.0023169518 2.1944601536
-6.2493977547 -6.3074884415 2.2320148945
-6.277238369 -6.1819620132 2.2149226665
-6.3115739822 -6.1399450302 2.2137191296
-9.7982120514 -9.0755119324 3.3422906399
-9.655371666 -8.8337182999 3.2756068707
-9.9613676071 -6.7234325409 3.010556221
-9.9281215668 -6.6126756668 2.9884083271
-11.3578071594 -7.4649581909 3.4007897377
-11.396068573 -7.3903737068 3.3986229897
-11.4387483597 -7.3187398911 3.3979008198
-11.4760532379 -7.2437520027 3.3957340717
-11.4871702194 -7.0551300049 3.3733456135
-11.4646644592 -6.9447793961 3.3543274403
-11.492064476 -6.8653411865 3.3499941826
-11.5180845261 -6.7853360176 3.3454203606
-11.5015954971 -6.6808905602 3.3288094997
-11.4783649445 -6.5735273361 3.3105134964
-11.4601678848 -6.4700427055 3.2939026356
-11.4716663361 -6.3840246201 3.2859585285
-11.5038137436 -6.3097805977 3.2840325832
-11.7314462662 -6.1565103531 3.3158097267
-11.7655525208 -6.082628727 3.3148467541
-14.1447896957 -5.7337422371 3.8153374195
-14.1860170364 -5.6493577957 3.817022562
-14.4409589767 -5.6484951973 3.8757622242
-16.1616840363 -5.8686122894 4.2944025993
-16.2019615173 -5.7709641457 4.2956061363
-16.3002891541 -5.6935310364 4.3122172356
-16.2449302673 -5.5625863075 4.2886252403
-18.1964797974 -5.2487564087 4.7270059586
-18.2152633667 -5.1333193779 4.7236356735
-6.3898391724 -1.589951396 1.6629145145
-6.4711613655 -1.5681012869 1.6812103987
-6.528837204 -1.5397377014 1.6934880018
-9.6571674347 -1.9675731659 2.4741957188
-9.7454128265 -1.861307621 2.4905657768
-9.6774320602 -1.7868374586 2.470584631
-7.0586218834 -1.2135386467 1.8061525822
-7.2966971397 -1.2084680796 1.8641699553
-7.3375210762 -1.1690247059 1.872595787
-7.3426370621 -1.123686552 1.8721143007
-5.014960289 -0.735557735 1.2868844271
-5.0184178352 -0.7046374679 1.2866436243
-5.0563149452 -0.6783580184 1.2950694561
-5.1142935753 -0.6542316079 1.3085507154
-5.169274807 -0.6290664673 1.3213096857
-5.2000336647 -0.600461185 1.3280502558
-5.1814289093 -0.5661125779 1.3225133419
-5.2176303864 -0.5377008915 1.3306983709
-5.1648011208 -0.5002339482 1.3167357445
-5.1697063446 -0.4687097073 1.3172171116
-5.2305121422 -0.4418981075 1.3316613436
-5.2176437378 -0.4085794985 1.3278095722
-5.1873998642 -0.3422107995 1.3191430569
-5.1109256744 -0.3056603074 1.2996433973
-5.1776399612 -0.2777960002 1.3157727718
-5.1782774925 -0.2459750623 1.3155319691
-4.91882658 -0.2033392489 1.2507739067
-4.999519825 -0.1759759188 1.270514369
-4.9180407524 -0.1428769976 1.2500517368
-4.8625459671 -0.1113923639 1.2360889912
-5.2581105232 -0.0882912204 1.334068656
-5.3167853355 -0.0566622689 1.348512888
-4.1882491112 -0.018638676 1.0685366392
-4.1989612579 0.0070747295 1.0711846352
-4.2192206383 0.0329915695 1.0762401819
-5.4048900604 0.0750385672 1.3704198599
-5.3975353241 0.1080666929 1.3687347174
-4.1790876389 0.109642759 1.0666106939
-4.1686353683 0.1349722445 1.0642033815
-4.1493010521 0.1598442793 1.0596293211
-5.5377335548 0.2469013631 1.404604435
-7.3723993301 -0.364513129 1.7680938244
-7.3803319931 -0.319521606 1.7694690228
-4.9538941383 -0.0932106823 1.1966972351
-4.9546647072 -0.0324117616 1.1966972351
-4.9966259003 -0.0020153769 1.2065528631
-5.0468864441 0.0599155687 1.2184712887
-5.1028699875 0.091913335 1.2317649126
-5.1177797318 0.1236023977 1.2354320288
-4.1332974434 0.1249442697 1.0037105083
-4.1324529648 0.1503033638 1.0037105083
-5.1934089661 0.2211581469 1.2539973259
-5.1990509033 0.2853550017 1.2560601234
-5.2195482254 0.3186202943 1.2613316774
-5.2184658051 0.3507063687 1.2615609169
-5.3123202324 0.389796108 1.2842518091
-5.3913331032 0.4288890362 1.3035045862
-5.4817008972 0.46996665 1.3255078793
-4.9311857224 0.6677041054 1.2017396688
-4.8923020363 0.6930243373 1.1934883595
-4.9110660553 0.7264546752 1.1989892721
-4.8949728012 0.7547914982 1.1962387562
-4.1232824326 2.6442444324 1.1834036112
-4.1853141785 2.7204420567 1.205406785
-4.1067771912 2.7053585052 1.187987566
-12.9220933914 19.5904922485 5.5560884476
-12.5150337219 19.7551307678 5.5366067886
-7.7355651855 18.9935626984 4.8590903282
-7.625746727 19.0578403473 4.863445282
-1.2725330591 4.4837274551 1.1274787188
-1.2294133902 4.4351663589 1.1137266159
-1.2049702406 4.4529623985 1.1162478924
-1.1751426458 4.4508600235 1.1139558554
-1.1444166899 4.4447889328 1.1107470989
-1.1166491508 4.4498391151 1.11028862
-1.0895552635 4.457552433 1.1105178595
-1.0675843954 4.4868822098 1.1160186529
-1.0448560715 4.5142126083 1.1210610867
-1.019485116 4.5309853554 1.1235822439
-0.9910416007 4.5343027115 1.1228946447
0.418289423 4.2665777206 1.039465785
0.4467889071 4.2861971855 1.044737339
0.4714726806 4.2688627243 1.0412993431
0.4986749291 4.2745909691 1.0433621407
0.5242987871 4.2666201591 1.0422161818
10.6299734116 19.6060657501 5.2815065384
10.745850563 19.5327987671 5.2794437408
9.9160699844 16.5515232086 4.5732774734
10.0159244537 16.4878730774 4.5725898743
19.4760932922 8.4950790405 5.0332827568
19.5323238373 8.3773336411 5.0344285965
14.7362480164 4.1790800095 3.6367645264
14.7784986496 4.0932564735 3.6408901215
14.8099136353 4.004278183 3.6424946785
9.5657463074 2.3365402222 2.3486583233
9.551492691 2.27105093 2.3417823315
9.5718860626 2.2139358521 2.3433868885
9.5045661926 2.1370236874 2.3239047527
17.7880153656 3.5420649052 4.300757885
14.3835124969 1.0642496347 3.4261293411
14.3732614517 0.9748558998 3.4222331047
18.3090190887 0.7906467319 4.34522295
18.319360733 0.6785055399 4.3465981483
12.2568130493 0.0781736299 2.9161584377
12.2200727463 0.0029609241 2.907449007
13.818025589 -0.2512168288 3.2842543125
13.795788765 -0.335498929 3.2794411182
13.8294687271 -0.4212420285 3.2879216671
11.7477312088 -0.936160624 2.8049962521
11.7485542297 -1.0088094473 2.8066008091
11.7343893051 -1.0801634789 2.8047671318
15.2226266861 -1.4959180355 3.6317222118
15.1570119858 -1.5834232569 3.6184284687
15.1373357773 -1.6753234863 3.6161365509
9.798034668 -1.6355566978 2.3690571785
9.7667150497 -1.6919872761 2.364014864
9.7647714615 -1.7534322739 2.3660776615
9.7624416351 -1.8149172068 2.3681404591
13.0398349762 -2.5906221867 3.1604862213
13.0313224792 -2.6721494198 3.1623196602
21.1003284454 -5.0066828728 5.1364226341
16.1662406921 -6.3463287354 4.1194605827
16.1387462616 -6.4501004219 4.1224403381
13.455368042 -5.4733910561 3.4504246712
13.4485111237 -5.5670199394 3.457300663
13.3809089661 -5.6354517937 3.4488203526
5.4065365791 -2.5547297001 1.4380452633
5.3389921188 -2.5629899502 1.4245223999
5.3179163933 -2.5931401253 1.4231472015
5.295800209 -2.6226961613 1.4215427637
5.2865638733 -2.6586413383 1.423376441
5.2753520012 -2.6936862469 1.4247516394
5.2639088631 -2.7286934853 1.4261268377
5.3021903038 -2.7899622917 1.44079566
21.3371963501 -12.4303722382 5.8446521759
7.2103672028 -4.2589559555 2.0018782616
7.2007980347 -4.3131241798 2.0064620972
7.1658787727 -4.3521718979 2.0041701794
7.1324095726 -4.391974926 2.0023365021
9.0152864456 -13.1342487335 3.7811608315
8.9448976517 -13.2046308517 3.7855155468
9.1176624298 -13.8220710754 3.9289951324
8.8161125183 -14.499297142 4.0257177353
6.0891609192 -10.4419565201 2.8762776852
6.021094799 -10.4723720551 2.8744440079
6.9649353027 -13.2179145813 3.5480639935
6.8814582825 -13.2560815811 3.5469179153
6.7999911308 -13.2980556488 3.5469179153
5.1260380745 -14.3163671494 3.6106357574
5.0400323868 -14.3530607224 3.6120109558
3.3020925522 -16.0668678284 3.8923230171
3.2042059898 -16.0906448364 3.8932397366
-0.8695046902 -12.9082021713 3.076369524
-0.9486916065 -12.9026241302 3.076369524
-2.1023705006 -17.9836273193 4.2934236526
-2.2095816135 -17.9452705383 4.2874646187
-2.3232736588 -17.9593696594 4.2941112518
-0.5003819466 -3.2480819225 0.8038477302
-0.5162853003 -3.2199635506 0.7978885174
-0.5341081619 -3.2052140236 0.7951381207
-0.5526009202 -3.1951630116 0.7935337424
-0.5651368499 -3.1524329185 0.7841365337
-0.5853593946 -3.153690815 0.7852824926
-0.604147315 -3.1471719742 0.7845948935
-0.6270522475 -3.1615452766 0.788949728
-0.6462436914 -3.1566846371 0.7887205482
-0.6670109034 -3.1593260765 0.7903249264
-0.6897006035 -3.1703906059 0.7939921021
-0.7125511169 -3.1812951565 0.7976593375
-0.7377508879 -3.2015223503 0.8036185503
-0.7589547038 -3.2035646439 0.8052229285
-0.7922019362 -3.2546422482 0.8187457919
-3.3633055687 -12.1647233963 3.0018794537
-3.4476976395 -12.1785097122 3.0103600025
-3.4386248589 -11.8682413101 2.9395370483
-3.4701519012 -11.7078695297 2.9053862095
-3.529779911 -11.6463022232 2.8955304623
-3.6418023109 -11.7555198669 2.9278478622
-3.6995208263 -11.4432144165 2.8618381023
-3.7565414906 -11.3805541992 2.8519823551
-3.8415334225 -11.4024877548 2.8632133007
-3.918389082 -11.3989524841 2.8682556152
-3.9908354282 -11.3820428848 2.8700892925
-4.0771965981 -11.1868076324 2.8336462975
-4.096601963 -11.0292778015 2.8004124165
-4.173848629 -11.0294237137 2.8068299294
-4.2516012192 -11.0299434662 2.8134768009
-4.3996424675 -11.0094766617 2.8217279911
-4.5100345612 -11.087761879 2.8485443592
-4.5578742027 -11.0113153458 2.8361675739
-4.6283760071 -10.9903182983 2.8380012512
-8.1054124832 -17.9964008331 4.6775636673
-8.2124423981 -17.9392490387 4.6757297516
-3.6231667995 -7.6663222313 2.0266318321
-3.6587591171 -7.6202569008 2.0204434395
-3.7088618279 -7.6046619415 2.0222771168
-3.3552498817 -6.7741308212 1.8100374937
-3.4702568054 -6.8994922638 1.8485431671
-3.5014545918 -6.8563995361 1.8428131342
-1.2712584734 -2.4539575577 0.6807671189
-1.2831175327 -2.4400820732 0.6791627407
-1.2916431427 -2.4201440811 0.6759539247
-1.2906928062 -2.3830802441 0.6681610942
-1.2968444824 -2.3597652912 0.6640354991
-1.2994378805 -2.3305156231 0.6583055258
-1.3031605482 -2.3038649559 0.653263092
-1.3163025379 -2.2941374779 0.6528046727
-1.3298642635 -2.2851765156 0.6525754929
-1.3468319178 -2.2820017338 0.6539506912
-1.3583071232 -2.2695198059 0.6528046727
-1.3782720566 -2.2711253166 0.6555550694
-1.396265626 -2.2692556381 0.6573886871
-1.4256310463 -2.2854139805 0.664264679
-1.4927332401 -2.3605113029 0.6876431704
-7.5678672791 -11.6384754181 3.298923254
-7.6155662537 -11.5560617447 3.2888383865
-7.6511855125 -11.4565048218 3.2739403248
-10.0400400162 -11.5009250641 3.62484622
-10.1059064865 -11.4339990616 3.623241663
-6.144174099 -6.617825985 2.1563591957
-6.2200026512 -6.6175866127 2.1685068607
-6.2953872681 -6.6159596443 2.1804254055
-6.3946237564 -6.6381878853 2.2003657818
-6.3210458755 -6.4817695618 2.1618599892
-6.3524909019 -6.434551239 2.1591095924
-6.4067401886 -6.3321671486 2.1510877609
-6.285369873 -5.9876179695 2.0740764141
-6.4531531334 -6.0723228455 2.1164784431
-9.6703023911 -8.8775157928 3.1210637093
-9.7959852219 -8.8827362061 3.1437544823
-9.7995443344 -8.7770090103 3.1277105808
-9.8318119049 -6.6605491638 2.8263120651
-9.9040565491 -6.6211915016 2.8352508545
-9.9583101273 -6.5694074631 2.8391473293
-10.0131168365 -6.5177369118 2.8432729244
-11.5897445679 -7.3428616524 3.2606468201
-11.6329307556 -7.2705788612 3.2601883411
-11.6748371124 -7.1975312233 3.259500742
-11.7994766235 -6.9779486656 3.2578964233
-11.7773208618 -6.8676681519 3.2402479649
-11.6235895157 -6.5882568359 3.1760718822
