0.9732190967 -2.4399819374 -1.2614936829
0.9562731385 -2.4409060478 -1.258818388
0.9393525124 -2.4417140484 -1.2561429739
0.9249843359 -2.4491069317 -1.2570347786
0.914288342 -2.4664888382 -1.263277173
0.9031082988 -2.4829900265 -1.2690737247
0.8917599916 -2.4994463921 -1.2748701572
0.8843753934 -2.5276868343 -1.2869091034
0.874937892 -2.5508491993 -1.2962727547
0.8493038416 -2.5264689922 -1.2806667089
0.8354629278 -2.536734581 -1.2833420038
0.8303055763 -2.5741899014 -1.300285697
0.8236433864 -2.6082615852 -1.3154457808
0.8018197417 -2.5944492817 -1.3056362867
0.7488313317 -2.6521148682 -1.3257011175
0.7382433414 -2.6773719788 -1.3364024162
0.7194797397 -2.6732068062 -1.331943512
0.6992071271 -2.662851572 -1.3243634701
0.6801965237 -2.6566846371 -1.3190128803
0.6565312743 -2.6312766075 -1.3038527966
0.6422716379 -2.6430842876 -1.3078657389
0.6293305159 -2.6609141827 -1.314999938
0.6137924194 -2.6682152748 -1.3167834282
0.5907846093 -2.6422278881 -1.3016233444
0.5702033043 -2.6256825924 -1.2913680077
0.5520566106 -2.6194963455 -1.2864632607
0.5238203406 -2.5631940365 -1.2561429739
0.5068696141 -2.5602128506 -1.2530218363
0.4913188815 -2.5641539097 -1.253467679
0.4750886261 -2.5644795895 -1.2521300316
0.4587157667 -2.5638217926 -1.2503465414
0.4426723719 -2.5648238659 -1.2494547367
0.4299992025 -2.5860357285 -1.258818388
0.4138416946 -2.5868575573 -1.2579265833
0.3978257775 -2.5884635448 -1.2574806213
0.3819357753 -2.5908558369 -1.2574806213
0.3675266206 -2.6037869453 -1.2628313303
0.3526156247 -2.6139771938 -1.2668442726
0.3370247781 -2.6196429729 -1.2686277628
0.3218107224 -2.6287696362 -1.2721948624
0.3053663969 -2.6280272007 -1.2708572149
0.2887486219 -2.625402689 -1.2686277628
0.2692340016 -2.5941815376 -1.2521300316
0.2577191293 -2.6412210464 -1.2748701572
0.2415080369 -2.6427526474 -1.2748701572
0.2259672582 -2.6522119045 -1.2788832188
0.209339276 -2.6490867138 -1.2766537666
0.193532601 -2.656570673 -1.2797749043
0.1781734675 -2.6719985008 -1.2869091034
0.1618822068 -2.6748282909 -1.2878009081
0.1457071751 -2.6802401543 -1.2900303602
0.1292161793 -2.6801898479 -1.2895843983
0.1127313003 -2.6800377369 -1.2891385555
0.0967592746 -2.6940970421 -1.2958267927
0.0803052112 -2.6973240376 -1.2971644402
0.0639184639 -2.7049248219 -1.3007315397
0.0473049916 -2.7043712139 -1.300285697
0.0307877567 -2.7117710114 -1.3038527966
0.0142149273 -2.7262301445 -1.3109868765
-0.0025289326 -2.7370069027 -1.3163375854
-0.0194113143 -2.7485759258 -1.3221340179
-0.0363988653 -2.7573549747 -1.3265929222
-0.0532280505 -2.7526051998 -1.3243634701
-0.0707452595 -2.7763860226 -1.3364024162
-0.0878082812 -2.7767944336 -1.336848259
-0.1037142053 -2.7466869354 -1.3221340179
-0.1211617887 -2.7594120502 -1.3288223743
-0.1393121928 -2.7827532291 -1.3408612013
-0.1546598822 -2.7514617443 -1.3257011175
-0.1711462289 -2.744207859 -1.3225799799
-0.1871176511 -2.7306044102 -1.3163375854
-0.2030629218 -2.7186942101 -1.3109868765
-0.2179975361 -2.6959855556 -1.300285697
-0.2406278551 -2.7641479969 -1.3350647688
-0.2569152117 -2.7554900646 -1.3314976692
-0.2730163932 -2.7458460331 -1.3274847269
-0.287496835 -2.7218668461 -1.3163375854
-0.3034927249 -2.7138252258 -1.3132163286
-0.3229850829 -2.7359111309 -1.3252552748
-0.3395444751 -2.7321014404 -1.3243634701
-0.3569998741 -2.735291481 -1.327038765
-0.3704889715 -2.7091069221 -1.314999938
-0.3816350996 -2.6686842442 -1.2958267927
-0.3960131109 -2.653014183 -1.2891385555
-0.4064855278 -2.6133904457 -1.2704113722
-0.4200740159 -2.5958275795 -1.2628313303
-0.4356960058 -2.5914359093 -1.2619395256
-0.4506626129 -2.5834236145 -1.2592642307
-0.4639500976 -2.5665180683 -1.2521300316
-0.4801846147 -2.5662622452 -1.253467679
-0.4959218502 -2.5632677078 -1.253467679
-0.5119922757 -2.5619316101 -1.2543594837
-0.5313282013 -2.5762727261 -1.263277173
-0.5502992868 -2.5878460407 -1.2708572149
-0.5419710875 -2.4742655754 -1.2146756649
-0.5559583306 -2.4656550884 -1.21200037
-0.5779703259 -2.4918394089 -1.2271604538
-0.606567204 -2.5439624786 -1.2556971312
-0.6200309396 -2.5314998627 -1.2512382269
-0.6672728658 -2.6534998417 -1.3158916235
-0.6891439557 -2.6710202694 -1.327038765
-0.7110255957 -2.6875061989 -1.3377400637
-0.7312576771 -2.6969132423 -1.3448742628
-0.7473118305 -2.6906509399 -1.3439824581
-0.759637475 -2.6713807583 -1.3364024162
-0.7765156031 -2.6683881283 -1.3372941017
-0.8593864441 -2.6475689411 -1.3395235538
-0.8541819453 -2.5776839256 -1.3056362867
-0.850163579 -2.5138993263 -1.2748701572
-0.8576771021 -2.4857940674 -1.2628313303
-0.8711278439 -2.4754197598 -1.2601560354
-0.9289927483 -2.5887956619 -1.3230258226
-0.93685323 -2.5611948967 -1.3114328384
-0.9084041119 -2.4371635914 -1.248562932
-0.9939895868 -2.6172707081 -1.3475495577
-1.0122936964 -2.616964817 -1.3506706953
-1.0276750326 -2.6090390682 -1.3497788906
-1.0353249311 -2.5819189548 -1.3386318684
-1.0538572073 -2.5821461678 -1.3421988487
-1.0768998861 -2.5929865837 -1.3515625
-1.0941851139 -2.5896275043 -1.3533459902
-1.1118234396 -2.5869758129 -1.3555754423
-1.1294704676 -2.5842049122 -1.3578048944
-1.1493088007 -2.5862214565 -1.3627096415
-1.1670005322 -2.5831983089 -1.3649390936
-1.1779676676 -2.5654170513 -1.3591425419
-1.1861082315 -2.5419223309 -1.3502248526
-1.1955406666 -2.5216591358 -1.3430906534
-1.2098242044 -2.5118572712 -1.341753006
-1.2378149033 -2.5301089287 -1.3560214043
-1.2596952915 -2.5352883339 -1.3631554842
-1.2812820673 -2.5394952297 -1.3698438406
-1.2964315414 -2.5307891369 -1.3693978786
-1.3098688126 -2.5188171864 -1.3671684265
-1.3181890249 -2.4972794056 -1.3595883846
-1.3330640793 -2.4883553982 -1.3591425419
-1.3448837996 -2.4738395214 -1.3555754423
-1.3622014523 -2.46945858 -1.3578048944
-1.3668270111 -2.4423131943 -1.3471035957
-1.383556366 -2.4369931221 -1.3488872051
-1.411896348 -2.451720953 -1.3622637987
-1.4269131422 -2.4430115223 -1.3622637987
-1.4409632683 -2.4326703548 -1.361371994
-1.4701627493 -2.4475622177 -1.3751944304
-1.4907449484 -2.4476659298 -1.3805450201
-1.5047941208 -2.4369502068 -1.3796532154
-1.5282747746 -2.4413230419 -1.3876792192
-1.5168267488 -2.3903465271 -1.3631554842
-1.5237113237 -2.3689534664 -1.3560214043
-1.5382182598 -2.359559536 -1.3560214043
-1.555136323 -2.3538095951 -1.3582507372
-1.5630708933 -2.3345575333 -1.3524543047
-1.6014691591 -2.1830463409 -1.3016233444
-1.611628294 -2.1688699722 -1.2989480495
-1.629753828 -2.1653740406 -1.3029609919
-2.41578269 -1.7425680161 -1.4367265701
-2.3753714561 -1.6913955212 -1.4055145979
-2.3783793449 -1.6716454029 -1.4010558128
-2.3974201679 -1.6631382704 -1.4064064026
-2.3942809105 -1.6393013 -1.3983803988
-2.3976173401 -1.6200726032 -1.3943674564
-2.4037878513 -1.6028497219 -1.3921380043
-2.41208148 -1.587086916 -1.3912463188
-2.4060032368 -1.5620294809 -1.3818826675
-2.4260981083 -1.5539907217 -1.388125062
-2.4673781395 -1.5591411591 -1.4068522453
-2.4563827515 -1.5311983824 -1.3948134184
-2.474121809 -1.521250248 -1.3997181654
-2.4872374535 -1.5083594322 -1.4019474983
-2.474930048 -1.4802165031 -1.3894627094
-2.5078737736 -1.4790865183 -1.4032851458
-2.545539856 -1.4803050756 -1.4197829962
-2.553021431 -1.463768363 -1.4188911915
-2.5791027546 -1.4577567577 -1.4287006855
-2.6005129814 -1.4488683939 -1.4358348846
-2.615632534 -1.4363281727 -1.439401865
-2.6243965626 -1.4202519655 -1.439401865
-2.6449117661 -1.4104340076 -1.4460902214
-2.6233980656 -1.3783732653 -1.4291465282
-2.6214697361 -1.3569066525 -1.4233500957
-2.5962457657 -1.3237369061 -1.4046229124
-2.5779156685 -1.2945399284 -1.3899086714
-2.6572375298 -1.3139730692 -1.4295924902
-2.6628348827 -1.2964695692 -1.4282547235
-2.6836574078 -1.2862899303 -1.4353889227
-2.7279365063 -1.2869671583 -1.4554537535
-2.7455263138 -1.274723053 -1.4608044624
-2.7500388622 -1.2563666105 -1.459020853
-2.7601459026 -1.2405686378 -1.4603585005
-2.7644305229 -1.2221633196 -1.4585750103
-2.7702355385 -1.2044650316 -1.4576832056
-2.7759273052 -1.1867417097 -1.4567914009
-2.7914102077 -1.1731504202 -1.4612503052
-2.7902815342 -1.1525874138 -1.4567914009
-2.7865171432 -1.1310737133 -1.4509949684
-2.8116996288 -1.1212399006 -1.4608044624
-2.9072401524 -1.0977158546 -1.500934124
-2.8383693695 -1.0518995523 -1.4608044624
-2.8599145412 -1.0399625301 -1.4688303471
-2.8713011742 -1.0241966248 -1.4715056419
-2.8859817982 -1.0095107555 -1.4759645462
-2.8768787384 -0.9865647554 -1.4679385424
-2.8591175079 -0.9609212875 -1.4554537535
-2.8734629154 -0.9461552501 -1.4599126577
-2.874102354 -0.9268603921 -1.4572373629
-2.9019312859 -0.916203618 -1.4688303471
-2.9211835861 -0.9026016593 -1.4759645462
-2.927523613 -0.8849192262 -1.4764103889
-2.9268889427 -0.8651664257 -1.4732892513
-2.9226820469 -0.8444626331 -1.4683845043
-2.9415931702 -0.8303976655 -1.4755185843
-2.9595782757 -0.8158947229 -1.4822069407
-2.9800889492 -0.8018987179 -1.4902328253
-2.9780263901 -0.7817832828 -1.4866657257
-2.9775636196 -0.7621665001 -1.4839904308
-2.9674181938 -0.74020648 -1.4764103889
-2.9771237373 -0.7232501507 -1.4790856838
-3.0058982372 -0.7107243538 -1.4915704727
-3.0058403015 -0.6912661791 -1.4893410206
-3.1349730492 -0.189474225 -1.5174318552
-3.0360741615 -0.2701391876 -1.5318045616
-3.0447542667 -0.2520809174 -1.53548491
-3.0338480473 -0.2324622869 -1.5290442705
-3.0334458351 -0.2137203515 -1.5281242132
-3.0364723206 -0.195214808 -1.5290442705
-3.0633206367 -0.1780365258 -1.5423855782
-3.0483937263 -0.1584306657 -1.5341048241
-3.0759191513 -0.1409036964 -1.5479061604
-3.0687406063 -0.1217223704 -1.5437657833
-3.0845160484 -0.1033745557 -1.5515865088
-3.030400753 0.4217719138 -1.5377851725
-3.0339047909 0.4412615895 -1.5410054922
-3.0320179462 0.4600034356 -1.5414655209
-3.013355732 0.4760818481 -1.5331847668
-3.0095016956 0.49441728 -1.5327246189
-2.9985361099 0.5115186572 -1.5285842419
-2.9927186966 0.5294398665 -1.5272041559
-2.9955258369 0.5489220619 -1.5304244757
-3.0086712837 0.570458591 -1.5391652584
-2.9972748756 0.5873605609 -1.5350248814
-2.9962244034 0.6062725186 -1.5364049673
-2.9985301495 0.6259244084 -1.5396252871
-2.9928977489 0.6439352036 -1.5387052298
-2.9862904549 0.6617071629 -1.5373251438
-2.984770298 0.6806141734 -1.5387052298
-2.9736247063 0.6972839236 -1.5350248814
-2.9684274197 0.7153073549 -1.5345648527
-2.9639823437 0.733507812 -1.5345648527
-2.96458745 0.7529996634 -1.5373251438
-2.9710767269 0.774102211 -1.5433057547
-2.9705586433 0.7934696674 -1.5456058979
-2.9365279675 0.8036704063 -1.529964447
-2.9332506657 0.8221552372 -1.5308845043
-2.9255914688 0.839399457 -1.5295042992
-2.9169795513 0.8563293815 -1.5276641846
-2.9235706329 0.8778034449 -1.5341048241
-2.9138872623 0.8944167495 -1.5318045616
-2.9007232189 0.9098763466 -1.5276641846
-2.8815631866 0.9233030677 -1.5203034878
-2.9027199745 0.9894199967 -1.5414655209
-2.8924033642 1.0057480335 -1.5391652584
-2.9045786858 1.0300316811 -1.5492862463
-2.9023766518 1.0493499041 -1.5515865088
-2.9083735943 1.0717619658 -1.5584871769
-2.8975887299 1.0880206823 -1.5561869144
-2.9115793705 1.1137394905 -1.5676881075
-2.9319775105 1.1422585249 -1.5828695297
-2.9199643135 1.1582559347 -1.5801092386
-2.9185624123 1.1784859896 -1.5833295584
-2.9170217514 1.1987422705 -1.5865498781
-2.9071555138 1.2155871391 -1.5851697922
-2.8955593109 1.2316588163 -1.5828695297
-2.9034211636 1.2561227083 -1.5916104317
-2.9054057598 1.2782183886 -1.5971308947
-2.8894081116 1.2923848629 -1.592530489
-2.8725383282 1.3060346842 -1.5874700546
-2.852388382 1.3180320263 -1.5805693865
-2.8313965797 1.3294529915 -1.5732085705
-2.8191816807 1.3448839188 -1.5709084272
-2.7901165485 1.3520599604 -1.5589472055
-2.7857482433 1.3711204529 -1.561247468
-2.7915682793 1.3953536749 -1.5695282221
-2.7924482822 1.4172917604 -1.5750488043
-2.7978959084 1.4417399168 -1.5833295584
-2.7897830009 1.4592930079 -1.583789587
-2.7870454788 1.4797230959 -1.5874700546
-2.7841620445 1.500174284 -1.591150403
-2.7686772346 1.5138130188 -1.5874700546
-2.7616639137 1.5320682526 -1.5888501406
-2.7553040981 1.5507309437 -1.5906903744
-2.7503597736 1.5702557564 -1.5934505463
-2.7314603329 1.5817497969 -1.5879300833
-2.702578783 1.5872117281 -1.5764288902
-2.6965999603 1.6060416698 -1.5787291527
-2.7079577446 1.6354397535 -1.5916104317
-2.6910629272 1.6478420496 -1.5874700546
-2.6680884361 1.6563439369 -1.57964921
-2.6421084404 1.662730217 -1.5699882507
-2.6318562031 1.6789104939 -1.5699882507
-2.6252298355 1.6974434853 -1.5722885132
-2.5977003574 1.7023020983 -1.5617074966
-2.0660057068 2.3816003799 -1.5860898495
-2.0219395161 2.3598036766 -1.5626275539
-1.9988330603 2.3619866371 -1.5557268858
-1.9825972319 2.3721604347 -1.5543467999
-1.9798533916 2.3986778259 -1.5640077591
-1.9718182087 2.4190490246 -1.5695282221
-1.9686092138 2.4456436634 -1.5791891813
-1.961838603 2.4681143761 -1.5860898495
-1.9515826702 2.4863984585 -1.5902302265
-1.933032155 2.4941110611 -1.5874700546
-1.9085358381 2.4939250946 -1.57964921
-1.9006772041 2.5155169964 -1.5860898495
-1.8915653229 2.5356812477 -1.5916104317
-1.8780732155 2.5501024723 -1.5934505463
-1.860306263 2.5587027073 -1.5916104317
-1.8419877291 2.5664589405 -1.5893101692
-1.8292791843 2.5820641518 -1.5920704603
-1.8286355734 2.6150901318 -1.6058717966
-1.820105195 2.6372330189 -1.6127724648
-1.8073809147 2.653493166 -1.6159927845
-1.8044117689 2.6844475269 -1.6284140348
-1.7942733765 2.7050964832 -1.6343945265
-1.7752153873 2.7123370171 -1.6320943832
-1.6814992428 2.7880148888 -1.63945508
-1.6435297728 2.7631480694 -1.618293047
-1.6108591557 2.7463531494 -1.6021914482
-1.5930905342 2.7546470165 -1.6012713909
-1.6103779078 2.8245816231 -1.6371548176
-1.5999598503 2.8468031883 -1.6445155144
-1.5755946636 2.8441307545 -1.6371548176
-1.5666023493 2.8693425655 -1.6463557482
-1.5519044399 2.8843781948 -1.6495760679
-1.5582368374 2.9393782616 -1.6762586832
-1.5356618166 2.9402208328 -1.6711981297
-1.5188075304 2.9519584179 -1.6725783348
-1.4950618744 2.9501264095 -1.6661376953
-1.4804909229 2.9663991928 -1.6702780724
-1.4696820974 2.9905779362 -1.6790189743
-1.4547754526 3.0067374706 -1.6831593513
-1.4248769283 2.9915435314 -1.6693580151
-1.3925895691 2.9704656601 -1.652336359
-1.365065217 2.9587862492 -1.640835166
-1.3849390745 3.0512416363 -1.6886798143
-1.3596941233 3.0450799465 -1.6803990602
-1.2858117819 2.9272851944 -1.6090921164
-1.3113443851 3.0362529755 -1.6661376953
-1.2843869925 3.0246164799 -1.6550966501
-1.2722815275 3.0480172634 -1.6638374329
-1.2518758774 3.0516569614 -1.6615371704
-1.2440451384 3.0864715576 -1.6767187119
-1.2338793278 3.1163480282 -1.6891399622
-1.2156966925 3.1263442039 -1.6905200481
-1.187338233 3.1096773148 -1.6771787405
-1.1697877645 3.1210632324 -1.679479003
-1.1548908949 3.1398544312 -1.6859196424
-1.0308053493 2.8552649021 -1.5253639221
-0.986407876 2.7853322029 -1.4834998846
-0.951318562 2.7393019199 -1.4549770355
-0.9339228868 2.7434055805 -1.4540569782
-0.9106393456 2.7297024727 -1.4434759617
-0.8952456117 2.7394604683 -1.4457762241
-0.8786890507 2.7457482815 -1.4462362528
-0.8602401614 2.7460017204 -1.4434759617
-0.8420802355 2.7469818592 -1.4411756992
-0.8257166147 2.7537989616 -1.4420958757
-0.8102949262 2.763928175 -1.4448560476
-0.797698915 2.7842185497 -1.4531369209
-0.7825042605 2.7959039211 -1.4568172693
-0.76649791 2.8049368858 -1.4591175318
-0.7676988244 2.8791062832 -1.4963811636
-0.8444589972 3.2491095066 -1.6919001341
-0.8245069385 3.254229784 -1.6919001341
-0.8246303201 3.3411462307 -1.7356044054
-0.7250618339 3.0993475914 -1.6017314196
-0.7138605118 3.1383800507 -1.6201331615
-0.7058252096 3.1938681602 -1.6472758055
-0.6958397627 3.2432949543 -1.6711981297
-0.6714320183 3.2257659435 -1.6596970558
-0.6476146579 3.2098014355 -1.6491160393
-0.6240186691 3.1936666965 -1.6385350227
-0.6065394282 3.2087802887 -1.6445155144
-0.5892148614 3.22554636 -1.6514161825
-0.5889972448 3.3410513401 -1.7103019953
-0.5619897246 3.3060789108 -1.6900600195
-0.5435428619 3.3208584785 -1.6960406303
-0.5298635364 3.3671178818 -1.7185827494
-0.5094562769 3.3720619678 -1.7195028067
-0.4661828578 3.2178022861 -1.6371548176
-0.4402737021 3.1757400036 -1.613692522
-0.4289666414 3.2408883572 -1.6463557482
-0.415887177 3.2980854511 -1.6748784781
-0.3944931626 3.2908763885 -1.6698180437
-0.366068989 3.2199997902 -1.6316343546
-0.344524771 3.2054095268 -1.6228934526
-0.3246737421 3.205696106 -1.6219733953
-0.3083938956 3.2438728809 -1.640835166
-0.2892581224 3.2545492649 -1.6454356909
-0.2705067098 3.2713074684 -1.6532564163
-0.2520928681 3.2950406075 -1.6647574902
-0.2335201055 3.3204417229 -1.6771787405
-0.2131975442 3.3226983547 -1.6776387691
-0.1938607842 3.3425598145 -1.6872997284
-0.1733027697 3.3427996635 -1.6868396997
-0.1517652869 3.3207373619 -1.6748784781
-0.131454587 3.3233807087 -1.6757986546
-0.1113164201 3.3321115971 -1.6799390316
-0.091467388 3.3558094501 -1.6919001341
-0.0713844225 3.3820514679 -1.7052414417
-0.0505341962 3.3753232956 -1.7015610933
-0.0297892597 3.3711304665 -1.6992609501
-0.0091112126 3.3765771389 -1.702021122
0.0115735037 3.3694665432 -1.6983407736
0.0318419747 3.3320426941 -1.6790189743
0.0524375401 3.340662241 -1.68361938
0.0735101625 3.365131855 -1.696500659
0.0941828415 3.3655049801 -1.6969606876
0.1148628742 3.3657510281 -1.6974207163
0.135844633 3.3729672432 -1.7015610933
0.1569615901 3.3809390068 -1.7061616182
0.1778470278 3.3825721741 -1.7075417042
0.1986519694 3.3823034763 -1.7080017328
0.2200468779 3.3907663822 -1.7130622864
0.2409121692 3.3902380466 -1.713522315
0.2617097497 3.3886959553 -1.713522315
0.2826473713 3.3887958527 -1.7144423723
0.3022296131 3.3737339973 -1.7075417042
0.3215518892 3.3576760292 -1.7001810074
0.3416920006 3.3512239456 -1.6978807449
0.3633113801 3.3587729931 -1.7029412985
0.3816683292 3.3370764256 -1.6928203106
0.4023520052 3.3364343643 -1.6937403679
0.420446068 3.3154082298 -1.6840794086
0.4368780553 3.2837266922 -1.6688979864
0.4607285559 3.3073613644 -1.6826993227
0.4873376191 3.3475170135 -1.7052414417
0.5081373453 3.3462190628 -1.7061616182
0.5276809335 3.3369004726 -1.7029412985
0.5495979786 3.3423593044 -1.7075417042
0.5700959563 3.3389241695 -1.7075417042
0.5682715774 3.210367918 -1.6417553425
0.5847330689 3.1893582344 -1.6325544119
0.6142915487 3.2380371094 -1.6601570845
0.6375884414 3.2516283989 -1.6693580151
0.6815387607 3.1664497852 -1.6307141781
0.7052083611 3.181273222 -1.640835166
0.7241190672 3.1742901802 -1.63945508
0.7441943884 3.1723797321 -1.640835166
0.7697141767 3.1927773952 -1.6541764736
0.7862865329 3.175932169 -1.6477358341
0.8020218015 3.1564235687 -1.6399151087
0.8175473809 3.1368420124 -1.6320943832
0.8328629732 3.1171891689 -1.6242735386
0.8536233902 3.1180126667 -1.6274938583
0.8334763646 2.9734168053 -1.552506566
0.8514590859 2.9673936367 -1.5520465374
0.867891252 2.9561522007 -1.5488262177
0.9144922495 3.0451233387 -1.5998911858
0.9260916114 3.0165472031 -1.5874700546
0.9507238269 3.0302846432 -1.5980510712
0.9763757586 3.0463681221 -1.6100121737
1.0025379658 3.0630934238 -1.622433424
1.0303544998 3.083820343 -1.6371548176
1.0541476011 3.0917201042 -1.6449756622
1.0689985752 3.0734586716 -1.6385350227
1.0854531527 3.0601503849 -1.6348546743
1.0896611214 3.0133736134 -1.6127724648
1.1025825739 2.9916424751 -1.6044917107
1.1174718142 2.9756822586 -1.5994311571
1.1360275745 2.9695982933 -1.5998911858
1.161667347 2.9815900326 -1.6104722023
1.1812543869 2.9777054787 -1.6123124361
1.197501421 2.9654643536 -1.609552145
1.2089016438 2.9416451454 -1.6003512144
1.2252100706 2.9300787449 -1.5980510712
1.2470012903 2.9314880371 -1.6031115055
1.2656724453 2.9254100323 -1.6040315628
1.3051198721 2.9663221836 -1.6316343546
1.3342062235 2.9825584888 -1.6454356909
1.3528504372 2.9751236439 -1.6458957195
1.375936389 2.9772379398 -1.6518763304
1.3972066641 2.9751646519 -1.6555566788
1.4215705395 2.9793488979 -1.6629173756
1.4406013489 2.9721672535 -1.6638374329
1.4666757584 2.9791932106 -1.6730383635
1.4785584211 2.957439661 -1.6656776667
1.4922443628 2.9396085739 -1.6606171131
1.5029126406 2.9162003994 -1.652336359
1.5133501291 2.8927726746 -1.6440554857
1.5135377645 2.8505198956 -1.6247336864
1.5309997797 2.8411793709 -1.6247336864
2.3918449879 2.0240271091 -1.5759688616
2.3871667385 1.9951025248 -1.5644677877
2.4075903893 1.98718822 -1.5699882507
2.4259393215 1.9774181843 -1.574128747
2.4227931499 1.9502687454 -1.5640077591
2.4201014042 1.9237843752 -1.5543467999
2.4220709801 1.9012374878 -1.5479061604
2.4182350636 1.8743957281 -1.5377851725
2.4339258671 1.8627539873 -1.5405454636
2.4573655128 1.8568671942 -1.548366189
2.4437775612 1.8232074976 -1.5322645903
2.4456148148 1.8013465405 -1.5262840986
2.4832203388 1.8055882454 -1.5433057547
2.4985847473 1.7934176922 -1.5460659266
2.5051906109 1.774979353 -1.5433057547
2.5138494968 1.7580509186 -1.5419255495
2.531172514 1.7471231222 -1.5460659266
2.545517683 1.7340533733 -1.548366189
2.5620102882 1.7223562002 -1.5520465374
2.5799360275 1.7115013599 -1.5566469431
2.5673379898 1.6805970669 -1.5423855782
2.5678963661 1.6585640907 -1.5364049673
2.575026989 1.6408722401 -1.5345648527
2.5903134346 1.6283414364 -1.5377851725
2.5345475674 1.5718029737 -1.4977612495
2.5994870663 1.5899611712 -1.531344533
2.5886485577 1.5616278648 -1.5189232826
2.5981817245 1.5457148552 -1.5189232826
2.6390435696 1.5481178761 -1.5377851725
2.6454160213 1.5301220417 -1.5359449387
2.6740534306 1.5248291492 -1.5474461317
2.6740636826 1.503185153 -1.5419255495
2.7003366947 1.4961916208 -1.5520465374
2.7242839336 1.4876586199 -1.5607874393
2.7294485569 1.4688165188 -1.5584871769
2.731344223 1.4483078718 -1.5543467999
2.7638063431 1.4438214302 -1.5681481361
2.7828843594 1.4321030378 -1.574128747
2.7892415524 1.4137996435 -1.5727485418
2.785939455 1.3907270432 -1.5658478737
2.7856490612 1.3693106174 -1.5607874393
2.7947981358 1.3525780439 -1.561247468
2.7982320786 1.3331196308 -1.5584871769
2.8007283211 1.3132941723 -1.5552668571
2.8119606972 1.2975679636 -1.557107091
2.8255324364 1.2828511 -1.5603274107
2.8349730968 1.2662116289 -1.561247468
2.8288609982 1.2427415848 -1.5534267426
2.7627139091 1.1536417007 -1.5037418604
2.8083705902 1.1524547338 -1.5253639221
2.8112692833 1.1335470676 -1.5230637789
2.8173456192 1.115950346 -1.522603631
2.8274517059 1.0999251604 -1.5244438648
2.8407869339 1.0850803852 -1.5281242132
2.8498868942 1.0685608387 -1.5295042992
2.8638932705 1.0538027287 -1.5336447954
2.8552649021 1.0308053493 -1.5253639221
2.8648855686 1.0144469738 -1.5272041559
2.8870010376 1.002359271 -1.5359449387
2.918325901 0.9931716323 -1.5497462749
2.9302639961 0.9772042036 -1.5529665947
2.9235386848 0.9550884366 -1.5460659266
2.9158070087 0.9328228235 -1.5387052298
2.9257142544 0.9162348509 -1.5410054922
2.9253361225 0.896453321 -1.5377851725
2.9146149158 0.8736665249 -1.5290442705
2.8977577686 0.8493059278 -1.517083168
2.9268245697 0.8383204341 -1.529964447
2.9242146015 0.8182039857 -1.5258239508
2.9377484322 0.8025733829 -1.5304244757
2.9529166222 0.7872624397 -1.5359449387
2.9250254631 0.7606847286 -1.518463254
2.9477186203 0.7472784519 -1.5281242132
2.9470744133 0.727907598 -1.5253639221
2.9454402924 0.7083665133 -1.5221436024
2.9583795071 0.6922908425 -1.5267441273
2.9599735737 0.6735382676 -1.5253639221
2.9354317188 0.6490796804 -1.5101824999
2.9445695877 0.6321665645 -1.512942791
2.9353504181 0.6113906503 -1.5060421228
2.9390466213 0.5933681726 -1.5060421228
2.9609367847 0.5788740516 -1.5157029629
2.9749047756 0.5626599193 -1.5212235451
2.986164093 0.5458210111 -1.5253639221
2.9859585762 0.5268759131 -1.5235238075
2.9689979553 0.505148828 -1.512942791
2.9185798168 0.478243798 -1.4848799706
2.9644460678 0.4670340121 -1.5074222088
2.9707682133 0.4493617117 -1.5092623234
2.9514973164 0.4279722869 -1.4977612495
2.9540677071 0.4098541737 -1.4977612495
2.9468426704 0.3904522061 -1.4927008152
2.9148213863 0.3680769205 -1.4747589827
2.8976271152 0.3478859961 -1.4646379948
2.9164717197 0.3319826126 -1.4733788967
2.8893167973 0.3109900355 -1.4581973553
2.8690831661 0.2910493314 -1.4466962814
2.8743510246 0.2737708092 -1.4485365152
2.8733232021 0.2558967769 -1.4471563101
2.8739542961 0.238189593 -1.4466962814
2.8638515472 0.219685778 -1.4407156706
2.8775467873 0.2029649317 -1.4471563101
2.8787379265 0.1853048056 -1.4471563101
2.8727288246 0.1672358364 -1.4434759617
2.8630597591 0.1490684003 -1.4379553795
2.8461802006 0.1307111233 -1.4287545681
2.8256344795 0.1124309897 -1.4177134037
2.8076350689 0.0944933295 -1.4080525637
2.8205883503 0.0775865018 -1.4144932032
2.7819516659 0.0595050193 -1.3942512274
2.7867033482 0.0424947962 -1.3965513706
2.7966783047 0.0254685637 -1.4016119242
2.7958939075 0.0083067594 -1.4011518955
2.7417311668 -0.0085913828 -1.3730890751
2.7451782227 -0.0254528318 -1.3749293089
2.7440826893 -0.0422813371 -1.3744692802
2.7446591854 -0.0591384768 -1.3749293089
2.7628824711 -0.0765244141 -1.3845902681
2.7818825245 -0.0941676348 -1.394711256
2.7768166065 -0.1110506952 -1.3924109936
2.7805173397 -0.128298521 -1.394711256
2.7929768562 -0.1460737288 -1.4016119242
2.8070950508 -0.1641130894 -1.4094326496
2.8131229877 -0.1818032563 -1.413112998
2.8146111965 -0.1992530972 -1.4144932032
2.7947471142 -0.215059489 -1.4048322439
2.7783346176 -0.230929479 -1.3970113993
2.7821707726 -0.2484549582 -1.3997716904
2.7417094707 -0.2617459595 -1.3795297146
2.719738245 -0.2764656246 -1.368948698
2.6588549614 -0.2866733372 -1.3381257057
2.6693942547 -0.3044111729 -1.3445663452
2.7150700092 -0.3265877664 -1.3694087267
2.6733837128 -0.3381616771 -1.3487067223
2.6659786701 -0.3538492322 -1.3459464312
2.7138741016 -0.3772500157 -1.3721690178
2.7325913906 -0.3969924748 -1.383210063
2.8213803768 -0.4277349114 -1.4310547113
2.8222098351 -0.4455978572 -1.4328949451
2.8299338818 -0.4646487832 -1.4384155273
2.8261547089 -0.4818535745 -1.4379553795
2.8117816448 -0.4971581101 -1.4319748878
2.7824845314 -0.5095621943 -1.4181735516
2.7679681778 -0.5244589448 -1.4121929407
2.7847325802 -0.5453893542 -1.4227739573
2.7996039391 -0.5661903024 -1.4324349165
2.6527090073 -0.5532138944 -1.3565274477
2.6562066078 -0.5709843636 -1.3602079153
2.6049907207 -0.5766381621 -1.334905386
2.5598647594 -0.583075881 -1.3128232956
2.7048733234 -0.6338528395 -1.3919509649
2.3997862339 -0.5774069428 -1.2313953638
2.720154047 -0.6727908254 -1.4043722153
2.6781234741 -0.6797962189 -1.3841302395
2.3758683205 -0.6181048155 -1.2244945765
2.3883230686 -0.6370482445 -1.2332354784
2.3629677296 -0.6458000541 -1.2217344046
2.350414753 -0.6578780413 -1.2171338797
2.3284187317 -0.6671190858 -1.2074729204
2.3327972889 -0.6839069128 -1.2120734453
2.3336572647 -0.6997472048 -1.2148337364
2.2911403179 -0.70227319 -1.194131732
2.2969498634 -0.7195218205 -1.199652195
2.2544598579 -0.7213545442 -1.1789501905
2.287103653 -0.7473773956 -1.1991921663
2.288367033 -0.7633743882 -1.2024124861
2.3399200439 -0.7966756225 -1.2332354784
2.2796652317 -0.7916915417 -1.2028725147
2.2505087852 -0.7970234156 -1.1895312071
2.2472450733 -0.8114234209 -1.1904512644
2.2538816929 -0.8295118809 -1.1968919039
2.2562265396 -0.8461456299 -1.2010324001
2.2584517002 -0.862839222 -1.2051727772
2.2522881031 -0.8763571382 -1.2047127485
2.2757389545 -0.9016596079 -1.2208142281
2.2841520309 -0.9212775826 -1.2286350727
2.300617218 -0.9444189668 -1.2410562038
2.4495105743 -1.0234723091 -1.3280047178
2.3631615639 -1.0043109655 -1.2829203606
2.334151268 -1.0088887215 -1.2700390816
2.2694370747 -0.9973663092 -1.2369158268
2.2519345284 -1.0061812401 -1.2304751873
2.2974147797 -1.0435720682 -1.2599180937
2.1471307278 -1.0720891953 -1.1959718466
2.1555447578 -1.0929000378 -1.2047127485
2.1590511799 -1.11140728 -1.2106932402
2.1498324871 -1.1233961582 -1.2093131542
2.1507353783 -1.1407407522 -1.2139135599
2.1530680656 -1.1589831114 -1.2194341421
2.1459162235 -1.172172308 -1.2194341421
2.1425626278 -1.1874763966 -1.2217344046
2.1452870369 -1.2062760592 -1.2277148962
2.1378450394 -1.2194164991 -1.2277148962
2.1380000114 -1.2369713783 -1.2323154211
2.1357247829 -1.2532217503 -1.2355357409
2.1302814484 -1.2676689625 -1.2369158268
2.1194255352 -1.278875947 -1.2350757122
2.1175911427 -1.2955743074 -1.2387560606
2.0998036861 -1.3024413586 -1.2327754498
2.1097917557 -1.3266766071 -1.2438164949
2.1479799747 -1.3692691326 -1.272339344
2.0948424339 -1.3534334898 -1.2447365522
2.032336235 -1.330657959 -1.211153388
2.0485181808 -1.3593478203 -1.2263348103
1.6961128712 -2.0283837318 -1.3224841356
1.7067682743 -2.0668611526 -1.3413460255
1.6643736362 -2.0407767296 -1.3169636726
1.7001723051 -2.1111934185 -1.3569875956
1.6838772297 -2.1174106598 -1.3542273045
1.675778389 -2.1339957714 -1.3583676815
1.6724256277 -2.156883955 -1.3666484356
1.6623914242 -2.1713404655 -1.3694087267
1.6506398916 -2.183627367 -1.3707889318
1.5836898088 -2.1217586994 -1.3243243694
1.5569775105 -2.1128287315 -1.3123631477
1.6080822945 -2.2107646465 -1.368948698
1.5841529369 -2.2061488628 -1.3597477674
1.5567554235 -2.1962463856 -1.3473266363
1.5320785046 -2.1897335052 -1.3372056484
1.5140837431 -2.1925098896 -1.3330652714
1.4916234016 -2.1885373592 -1.3247843981
1.4727293253 -2.189535141 -1.3197239637
1.4778783321 -2.2266731262 -1.3372056484
1.4603060484 -2.2297506332 -1.3335253
1.4427518845 -2.2326965332 -1.3298449516
1.4147433043 -2.2190225124 -1.3160434961
1.4020439386 -2.2291662693 -1.3169636726
1.3827377558 -2.2286639214 -1.3114430904
1.2969360352 -2.1188397408 -1.2396761179
1.330578208 -2.2043735981 -1.286600709
1.3274427652 -2.2300622463 -1.2971817255
1.3016343117 -2.2174696922 -1.2847604752
1.2955421209 -2.2384917736 -1.2925813198
1.2817826271 -2.2463989258 -1.2925813198
1.2562577724 -2.2333068848 -1.2801600695
1.2519732714 -2.2580728531 -1.2902810574
1.2393677235 -2.2680518627 -1.2916611433
1.2224904299 -2.2701365948 -1.2884408236
1.2035602331 -2.2681744099 -1.2829203606
1.1670702696 -2.2322006226 -1.2576178312
1.1428174973 -2.218777895 -1.2456567287
1.1483966112 -2.2637901306 -1.2677388191
1.1408115625 -2.283513546 -1.2750995159
1.1162338257 -2.2689409256 -1.2626783848
1.0876361132 -2.2453560829 -1.2451967001
1.0791687965 -2.2632172108 -1.2516372204
1.0592486858 -2.256925106 -1.2442765236
1.051685214 -2.2770965099 -1.2520973682
1.0380593538 -2.2843155861 -1.2525573969
1.0362952948 -2.3182237148 -1.2681988478
1.0078133345 -2.2920017242 -1.2497971058
0.979475379 -2.3850851059 -1.2884408236
0.9684615135 -2.4001135826 -1.2935013771
0.9546937943 -2.4084887505 -1.2948814631
0.9379734397 -2.4093337059 -1.292121172
0.9244347811 -2.4183630943 -1.2939614058
0.9064734578 -2.415671587 -1.2893610001
0.896520555 -2.4345276356 -1.2967216969
0.8803645968 -2.436640501 -1.2948814631
0.8695291281 -2.4537200928 -1.3013221025
0.8617071509 -2.4799892902 -1.3128232956
0.8464739919 -2.4852297306 -1.3128232956
0.8365229964 -2.5063881874 -1.3215640783
0.8279910684 -2.5325837135 -1.3330652714
0.8100119233 -2.5300018787 -1.3289247751
0.7971141338 -2.5434014797 -1.3335253
0.780457437 -2.54484725 -1.3316850662
0.7366667986 -2.4551405907 -1.2806200981
0.741963625 -2.5295128822 -1.3183437586
0.7261856198 -2.5331640244 -1.3178837299
0.7122946978 -2.5435600281 -1.3211040497
0.6885282397 -2.5178928375 -1.3050024509
0.6776154637 -2.5392353535 -1.3142033815
0.6575779915 -2.5261526108 -1.3050024509
0.652695179 -2.5723283291 -1.3275446892
0.6371110082 -2.577147007 -1.3280047178
0.6188097596 -2.5706446171 -1.3224841356
0.6016175747 -2.5683393478 -1.3192638159
0.573319912 -2.5165553093 -1.2898210287
0.5584390759 -2.5226273537 -1.2912011147
0.5455414057 -2.5381639004 -1.2976417542
0.5272607803 -2.5284209251 -1.290741086
0.5148764253 -2.5472791195 -1.2990218401
0.4858795106 -2.4815301895 -1.2626783848
0.4608201981 -2.4321045876 -1.2350757122
0.4412956536 -2.4095504284 -1.2217344046
0.4353770912 -2.4629402161 -1.2484170198
0.42129004 -2.4716939926 -1.2516372204
0.4139405787 -2.5224359035 -1.2769397497
0.3985922933 -2.5258054733 -1.2773997784
0.3779583275 -2.4939577579 -1.259458065
0.3668101132 -2.5252332687 -1.2746394873
0.3542057872 -2.5485482216 -1.2856806517
0.34271276 -2.5823671818 -1.3022421598
0.3275206685 -2.589707613 -1.3050024509
0.3129828572 -2.6031310558 -1.3109830618
0.2962117493 -2.5979435444 -1.3073027134
0.2788603902 -2.5864682198 -1.3004020452
0.2598960102 -2.5572080612 -1.2843004465
0.2475964278 -2.5949995518 -1.3031623363
0.2324431986 -2.6053152084 -1.307762742
0.2168127894 -2.6111171246 -1.3100630045
0.2011864632 -2.6177108288 -1.3128232956
0.1849984825 -2.6171243191 -1.3119031191
0.167990163 -2.6031455994 -1.3040823936
0.1512608677 -2.5908303261 -1.2971817255
0.1344202757 -2.5730876923 -1.2875207663
0.1183934584 -2.5685417652 -1.2847604752
0.1023257598 -2.5612347126 -1.2806200981
0.0880316645 -2.6061863899 -1.303622365
0.072752364 -2.6341929436 -1.3178837299
0.0566933267 -2.6399161816 -1.320644021
0.0405425429 -2.6437654495 -1.3224841356
0.0241730232 -2.6244313717 -1.3123631477
0.0080582891 -2.6165392399 -1.3082227707
-0.0079839909 -2.6138756275 -1.3068426847
-0.0240802765 -2.6191046238 -1.3096029758
-0.0395760387 -2.5851724148 -1.292121172
-0.0561777838 -2.6168365479 -1.3086827993
-0.0730915517 -2.6457304955 -1.3238643408
-0.0897643939 -2.6576550007 -1.3303049803
-0.1063280404 -2.6632640362 -1.3335253
-0.1235566288 -2.6811861992 -1.3431861401
-0.1411524564 -2.7016561031 -1.3542273045
-0.1577268541 -2.7007391453 -1.3542273045
-0.1708346158 -2.647449255 -1.3270846605
-0.1912417412 -2.7039136887 -1.3569875956
-0.2053261995 -2.6708233356 -1.3404259682
-0.221335426 -2.6650896072 -1.3381257057
-0.2363174707 -2.6486489773 -1.3303049803
-0.2536802888 -2.6586377621 -1.3362854719
-0.2729990482 -2.6861767769 -1.3514670134
-0.2905390561 -2.6941599846 -1.3565274477
-0.3074728847 -2.6958544254 -1.3583676815
-0.3225040138 -2.6815779209 -1.351927042
-0.3382745385 -2.674264431 -1.3491667509
-0.3530213237 -2.6598188877 -1.3427261114
-0.3642644584 -2.6215536594 -1.3238643408
-0.3771165609 -2.597307682 -1.3123631477
-0.3929117918 -2.5940670967 -1.3119031191
-0.407143265 -2.5810856819 -1.3063826561
-0.4287813306 -2.6135766506 -1.3247843981
-0.4422499239 -2.596020937 -1.3169636726
-0.4548955262 -2.5749025345 -1.3073027134
-0.4632659554 -2.5318992138 -1.2861406803
-0.4987954795 -2.4690029621 -1.2576178312
-0.5099164248 -2.4467802048 -1.2474968433
-0.5271762013 -2.4540185928 -1.2530174255
-0.5536308289 -2.5018663406 -1.2801600695
-0.567183733 -2.4906337261 -1.2760196924
-0.6008115411 -2.5648806095 -1.3174237013
-0.619676888 -2.5740890503 -1.3243243694
-0.640823245 -2.5917778015 -1.3358254433
-0.6589123011 -2.5963995457 -1.3404259682
-0.6775323749 -2.6026144028 -1.3459464312
-0.6983267665 -2.6164152622 -1.3556073904
-0.713660717 -2.6095130444 -1.3542273045
-0.730381608 -2.6076488495 -1.3556073904
-0.7407074571 -2.583496809 -1.3450263739
-0.7479997873 -2.549949646 -1.3293848038
-0.7592703104 -2.5308616161 -1.3215640783
-0.7601256371 -2.4786431789 -1.2958016396
-0.7472874522 -2.3850176334 -1.2474968433
-0.7559198737 -2.3617942333 -1.2373758554
-0.7673465014 -2.347833395 -1.2323154211
-0.7930388451 -2.3767507076 -1.2507171631
-0.8242927194 -2.4205601215 -1.2773997784
-0.8347370625 -2.4028835297 -1.2704991102
-0.8318852782 -2.3483684063 -1.2433564663
-0.8653736711 -2.3957972527 -1.272339344
-0.8886874914 -2.4137575626 -1.2852205038
-0.8762233257 -2.335981369 -1.2451967001
-0.9526284337 -2.4921851158 -1.334905386
-0.9737249017 -2.5011768341 -1.3431861401
-0.9952959418 -2.5108275414 -1.351927042
-1.0153537989 -2.5161931515 -1.3583676815
-1.0338215828 -2.5173027515 -1.3625080585
-1.0544030666 -2.5231921673 -1.3694087267
-1.074049592 -2.5264737606 -1.3749293089
-1.0920073986 -2.5255367756 -1.3781496286
-1.1099940538 -2.5244743824 -1.3813699484
-1.1232811213 -2.5127558708 -1.3786096573
-1.131305337 -2.4896612167 -1.3694087267
-1.1454396248 -2.480256319 -1.3680286407
-1.1640431881 -2.4804098606 -1.3721690178
-1.1834585667 -2.4820299149 -1.3772295713
-1.1986657381 -2.4747216702 -1.3772295713
-1.2122548819 -2.4641358852 -1.3753893375
-1.2241668701 -2.450302124 -1.3717089891
-1.2291042805 -2.4229650497 -1.3602079153
-1.248842001 -2.4248421192 -1.3657283783
-1.2802029848 -2.4485809803 -1.3841302395
-1.2881062031 -2.4273579121 -1.3763093948
-1.2822848558 -2.3811366558 -1.3537672758
-1.400159359 -2.3851099014 -1.3855103254
-1.3979173899 -2.3482720852 -1.3684886694
-1.4169006348 -2.3472445011 -1.3730890751
-1.4331352711 -2.3415327072 -1.3749293089
-1.4507613182 -2.3379707336 -1.3781496286
-1.4702932835 -2.3372838497 -1.383210063
-1.4989643097 -2.3506546021 -1.3970113993
-1.5022467375 -2.3242795467 -1.3864303827
-1.5111150742 -2.3068568707 -1.3813699484
-1.5129345655 -2.2790677547 -1.3698687553
-2.3101584911 -1.8366457224 -1.4816596508
-2.1969246864 -1.7250292301 -1.3997716904
-2.2116832733 -1.714774251 -1.4025319815
-2.2263987064 -1.7044029236 -1.4052922726
-2.2396514416 -1.6928470135 -1.4071323872
-2.1274580956 -1.5879290104 -1.3280047178
-2.1271421909 -1.5674879551 -1.3215640783
-2.1367199421 -1.5544065237 -1.3215640783
-2.1498277187 -1.5438501835 -1.3238643408
-2.2296066284 -1.5803194046 -1.3684886694
-2.2917025089 -1.6031709909 -1.4016119242
-2.3073480129 -1.593105793 -1.4052922726
-2.3229558468 -1.5829087496 -1.408972621
-2.3547518253 -1.5834548473 -1.4227739573
-2.3584985733 -1.5650583506 -1.4190936089
-2.3598778248 -1.5452200174 -1.4140330553
-2.3573698997 -1.5230205059 -1.4066723585
-2.3899047375 -1.5232852697 -1.4209337234
-2.4142541885 -1.5180214643 -1.430134654
-2.4446706772 -1.5162504911 -1.443015933
-2.4440727234 -1.4952132702 -1.4370353222
-2.4478745461 -1.4769859314 -1.4338150024
-2.4400889874 -1.451975584 -1.4236940145
-2.4481856823 -1.4365279675 -1.4232339859
-2.490031004 -1.4405471087 -1.443015933
-2.4949634075 -1.4230479002 -1.4407156706
-2.5059719086 -1.409014225 -1.4420958757
-2.5200111866 -1.3966157436 -1.4453161955
-2.5402314663 -1.387493372 -1.4522168636
-2.5385248661 -1.3664255142 -1.4462362528
-2.5452914238 -1.3499940634 -1.4453161955
-2.5700657368 -1.3429610729 -1.4549770355
-2.5822079182 -1.3291919231 -1.457277298
-2.5432426929 -1.2505832911 -1.4209337234
-2.5348730087 -1.2272416353 -1.4117329121
-2.6354014874 -1.2558301687 -1.4650980234
-2.6470797062 -1.2415150404 -1.4673982859
-2.6619083881 -1.2285872698 -1.4715386629
-2.6669697762 -1.2111333609 -1.470158577
-2.6613712311 -1.1889712811 -1.4627978802
-2.684885025 -1.1797380447 -1.4719986916
-2.6782081127 -1.1572755575 -1.4641779661
-2.7024309635 -1.1480853558 -1.4738389254
-2.702865839 -1.1287546158 -1.470158577
-2.7072751522 -1.1111412048 -1.468778491
-2.7074503899 -1.0918620825 -1.4650980234
-2.7570495605 -1.0921690464 -1.4890204668
-2.7521076202 -1.0707417727 -1.4825798273
-2.7544763088 -1.0522569418 -1.4802795649
-2.756721735 -1.0337834358 -1.4779793024
-2.7513411045 -1.0125734806 -1.4715386629
-2.7666935921 -0.998975575 -1.4765992165
-2.7727711201 -0.9819806218 -1.4765992165
-2.7770659924 -0.9643687606 -1.4756791592
-2.7778851986 -0.9456017017 -1.4729188681
-2.7768933773 -0.9263016582 -1.4692385197
-2.7892799377 -0.9114416242 -1.4729188681
-2.7897434235 -0.8926938176 -1.470158577
-2.8011023998 -0.8774083257 -1.4733788967
-2.7835021019 -0.8532137871 -1.4609576464
-2.8473954201 -0.8536239862 -1.4927008152
-2.8074014187 -0.8229672909 -1.4683183432
-2.8004431725 -0.80232054 -1.4618778229
-2.7633986473 -0.7734603286 -1.4393355846
-2.8625016212 0.7600595951 -1.5363820791
-2.8586354256 0.7778394818 -1.5368536711
-2.85125947 0.7946587205 -1.535438776
-2.8268187046 0.8066030145 -1.5245914459
-2.8319780827 0.8268834949 -1.5302509069
-2.8378398418 0.8475086093 -1.5363820791
-2.8359613419 0.8659303188 -1.5382685661
-2.8305945396 0.883315146 -1.5382685661
-2.8242809772 0.9004001021 -1.5377969742
-2.8203806877 0.918256104 -1.5387401581
-2.823902607 0.9385901093 -1.5439281464
-2.8080644608 0.9525153637 -1.5382685661
-2.828846693 0.9789158702 -1.5533607006
-2.7867355347 1.0028518438 -1.5363820791
-2.7995808125 1.0268881321 -1.5472295284
-2.7965328693 1.0452767611 -1.5491160154
-2.7669794559 1.0536640882 -1.5359104872
-2.7908985615 1.0823745728 -1.5533607006
-2.7874872684 1.1007695198 -1.5552471876
-2.786411047 1.1201463938 -1.5585485697
-2.772135973 1.1342278719 -1.5543038845
-2.7863030434 1.1599969864 -1.5665662289
-2.7994446754 1.1856395006 -1.5783569813
-2.7945480347 1.2038372755 -1.5797718763
-2.7717530727 1.214261055 -1.570810914
-2.7811768055 1.2387552261 -1.5807150602
-2.7719159126 1.2550718784 -1.5797718763
-2.7721786499 1.2757310867 -1.5844881535
-2.7619006634 1.2915997505 -1.5830732584
-2.7459535599 1.3047492504 -1.5783569813
-2.7299492359 1.3177518845 -1.5736407042
-2.7265663147 1.33679986 -1.5764703751
-2.7198922634 1.3542884588 -1.5774136782
-2.7178313732 1.3741257191 -1.5811866522
-2.6960027218 1.3839497566 -1.573168993
-2.701546669 1.4077806473 -1.5816583633
-2.702218771 1.4292644262 -1.5873178244
-2.6840677261 1.4408267736 -1.5816583633
-2.6837010384 1.4618964195 -1.5868462324
-2.6754529476 1.4787613153 -1.5873178244
-2.6455459595 1.4835348129 -1.5745838881
-2.6379275322 1.5006095171 -1.5755271912
-2.6179685593 1.5106129646 -1.568924427
-2.6200757027 1.5333122015 -1.5759987831
-2.6113772392 1.5498087406 -1.5764703751
-2.5965251923 1.5626275539 -1.573168993
-2.5755872726 1.5716568232 -1.5660946369
-2.5816571712 1.5971502066 -1.5759987831
-2.5830245018 1.6199724674 -1.5830732584
-2.5856978893 1.643815279 -1.5910909176
-2.5607244968 1.650118351 -1.5816583633
-2.5402057171 1.6590640545 -1.5750555992
-2.5358662605 1.6785043478 -1.5788285732
-2.5306503773 1.6974635124 -1.5821299553
-2.5179975033 1.7114754915 -1.5807150602
-2.5408883095 1.7498522997 -1.6024099588
-2.526484251 1.762892127 -1.6000517607
-2.5177822113 1.7798851728 -1.6014666557
-2.4860019684 1.7804408073 -1.5877895355
-2.4771740437 1.7972115278 -1.5892044306
-2.4717903137 1.8165466785 -1.5929774046
-2.4436035156 1.8190665245 -1.5816583633
-2.4225280285 1.8266078234 -1.5750555992
-2.41548419 1.8446428776 -1.5778852701
-2.4090082645 1.863198638 -1.5811866522
-2.3436472416 1.9791177511 -1.5929774046
-2.3435380459 2.0037584305 -1.6014666557
-2.3805947304 2.0607385635 -1.6363670826
-2.0424466133 2.4973914623 -1.6778703928
-1.9815759659 2.4536864758 -1.6391968727
-1.9075510502 2.3921146393 -1.5887327194
-1.8950234652 2.4065423012 -1.5906192064
-1.8851020336 2.4243826866 -1.5948638916
-1.8927867413 2.4652473927 -1.6146723032
-1.875489831 2.4740071297 -1.612785697
-1.8570979834 2.4812371731 -1.6099560261
-1.8449887037 2.4968361855 -1.612785697
-1.2055733204 2.9763474464 -1.6698527336
-1.1902323961 2.991058588 -1.6740972996
-1.1683138609 2.9892759323 -1.6689094305
-1.1658039093 3.0375292301 -1.6924908161
-1.0719467402 2.8458609581 -1.5788285732
-1.125064373 3.0425136089 -1.687302947
-1.1048653126 3.0452170372 -1.6849447489
-1.0354087353 2.9099488258 -1.6042964458
-0.9889487624 2.834695816 -1.5580769777
-0.9483240843 2.7731621265 -1.5198751688
-0.9197508693 2.7446658611 -1.5005383492
-0.9020636082 2.7477457523 -1.4991234541
-0.8860003352 2.7557461262 -1.5005383492
-0.8666805029 2.7535641193 -1.4962937832
-0.8450731635 2.7436683178 -1.4878044128
-0.8266882896 2.7437384129 -1.4849746227
-0.8110899925 2.7529864311 -1.4873328209
-0.7981076837 2.7714633942 -1.4948788881
-0.7808471918 2.7754597664 -1.494407177
-0.7670911551 2.7920978069 -1.5010100603
-0.7522415519 2.8052656651 -1.5057263374
-0.7379324436 2.8209142685 -1.5118573904
-0.7508614063 2.943256855 -1.5769420862
-0.776009798 3.1206083298 -1.6722108126
-0.7566387653 3.1244542599 -1.6717392206
-0.7431499958 3.1530623436 -1.6849447489
-0.6491494179 3.0016405582 -1.5948638916
-0.6489533186 3.0918412209 -1.6420266628
-0.635458231 3.1225440502 -1.6566470861
-0.6044368148 3.0667052269 -1.6241048574
-0.5907677412 3.0972008705 -1.6387252808
-0.5759414434 3.1233081818 -1.6509876251
-0.5562989712 3.1241796017 -1.6495727301
-0.5362161398 3.1223208904 -1.6467429399
-0.5137099028 3.1055474281 -1.6358954906
-0.4936664701 3.1025466919 -1.6325941086
-0.4728725553 3.0941879749 -1.6264629364
-0.4550399184 3.1048817635 -1.6307076216
-0.4374649823 3.1180922985 -1.6363670826
-0.4196266532 3.1303298473 -1.6415550709
-0.4070792198 3.1844427586 -1.6693810225
-0.3891468644 3.2000086308 -1.6764554977
-0.3684819043 3.193577528 -1.6717392206
-0.3486857712 3.1940255165 -1.6707959175
-0.3291725516 3.1969819069 -1.6712676287
-0.3086025417 3.1892881393 -1.6660796404
-0.2869281769 3.1682913303 -1.653817296
-0.2672564387 3.1673564911 -1.6524025202
-0.247537002 3.1654205322 -1.650515914
-0.2266245484 3.1466529369 -1.6396685839
-0.2061884552 3.1312680244 -1.6307076216
-0.1852506846 3.104309082 -1.6156154871
-0.1672153622 3.1238772869 -1.6255197525
-0.1516539305 3.1988275051 -1.6651364565
-0.1322488338 3.2049837112 -1.6679661274
-0.1125166118 3.2039723396 -1.6670229435
-0.0930693001 3.2116537094 -1.6707959175
-0.0736813471 3.2253873348 -1.6778703928
-0.0537459552 3.217843771 -1.6736257076
-0.0338322595 3.2040052414 -1.6660796404
-0.0141006429 3.1918075085 -1.6594768763
0.0054844837 3.1927158833 -1.6599484682
0.0251201876 3.1996762753 -1.6637215614
0.0449860618 3.2179782391 -1.6736257076
0.0646973029 3.2158782482 -1.6726824045
0.0841212049 3.2030794621 -1.6660796404
0.1028162017 3.1716549397 -1.6495727301
0.1244697273 3.2300040722 -1.6811717749
0.1445915997 3.2362272739 -1.6849447489
0.1649252176 3.2449672222 -1.6901327372
0.1855184138 3.2562201023 -1.6967355013
0.2063646466 3.2691025734 -1.7042814493
0.2280931324 3.2924082279 -1.7174870968
0.2488771826 3.2988612652 -1.721731782
0.2691844702 3.2981510162 -1.7222033739
0.2877455354 3.2771098614 -1.7118275166
0.3072786927 3.2691361904 -1.7085261345
0.3255106509 3.2487614155 -1.6986219883
0.3471886516 3.2633652687 -1.7075829506
0.367790699 3.2664320469 -1.7104126215
0.3875176311 3.2614865303 -1.7089977264
0.4077388942 3.2607975006 -1.7099410295
0.4281935394 3.2617321014 -1.7118275166
0.4487939179 3.2634119987 -1.7141857147
0.4666958153 3.2457561493 -1.7061680555
0.4908821285 3.2716143131 -1.721731782
0.5542243719 3.2811572552 -1.7321075201
0.5669454336 3.2351255417 -1.7089977264
0.5835012197 3.2133615017 -1.6990935802
0.5983561277 3.1837153435 -1.6849447489
0.5938298702 3.0553035736 -1.6170303822
0.6368631721 3.1735384464 -1.6835298538
0.6550803185 3.1635251045 -1.6802284718
0.6677108407 3.1275291443 -1.6627782583
0.6868884563 3.12337327 -1.6627782583
0.7097165585 3.1354455948 -1.6717392206
0.7279480696 3.1267364025 -1.6693810225
0.7450793386 3.1136322021 -1.6646647453
0.754961133 3.0713114738 -1.6439131498
0.7740066648 3.0674767494 -1.6443847418
0.7892971039 3.0490062237 -1.6368387938
0.8129412532 3.0628631115 -1.6472145319
0.8197460175 3.0135545731 -1.6226899624
0.8069033623 2.895447731 -1.5599634647
0.8118980527 2.8454816341 -1.5349671841
0.8268834949 2.8319780827 -1.5302509069
0.8550408483 2.8631987572 -1.5505309105
0.8748993278 2.8654921055 -1.5547755957
0.8948180676 2.8676493168 -1.5590201616
0.914796114 2.8696696758 -1.5632648468
0.9432566762 2.8975577354 -1.5821299553
0.9798462987 2.9486451149 -1.614200592
0.9970743656 2.9400708675 -1.612785697
1.0219868422 2.9539072514 -1.6241048574
1.0438916683 2.9583964348 -1.6302360296
1.0507251024 2.9203896523 -1.612314105
1.0740684271 2.928797245 -1.6208034754
1.0957090855 2.9320690632 -1.6264629364
1.1164926291 2.9327116013 -1.6307076216
1.1414542198 2.9439029694 -1.6410833597
1.1656270027 2.9524357319 -1.650044322
1.1840485334 2.9460468292 -1.650515914
1.1894595623 2.9076945782 -1.6325941086
1.2055897713 2.8962686062 -1.6302360296
1.2188829184 2.878254652 -1.6241048574
1.2396498919 2.8780148029 -1.6283494234
1.2456479073 2.8436834812 -1.612785697
1.2616425753 2.8327624798 -1.61089921
1.2612352371 2.7855808735 -1.5877895355
1.3293828964 2.8892090321 -1.6533457041
1.3429894447 2.8722052574 -1.648157835
1.3447415829 2.8304364681 -1.6283494234
1.3391532898 2.7744512558 -1.6000517607
1.3445407152 2.7424125671 -1.5859029293
1.3589911461 2.7293715477 -1.5830732584
1.3983263969 2.7658696175 -1.6099560261
1.3903746605 2.7085638046 -1.5807150602
1.4138760567 2.7132854462 -1.5887327194
1.6080287695 2.8273994923 -1.6920192242
1.5967735052 2.7677929401 -1.6613633633
1.6115049124 2.7541348934 -1.6590052843
1.6355566978 2.7563383579 -1.6665513515
